# .PCD v0.7 - Point Cloud Data file format
VERSION 0.7
FIELDS x y z
SIZE 4 4 4
TYPE F F F
COUNT 1 1 1
WIDTH 1315
HEIGHT 1
VIEWPOINT 0 0 0 1 0 0 0
POINTS 1315
DATA ascii
0.0096691512 -0.051108371 0.32046106
0.010592884 -0.051122177 0.32054764
0.011518408 -0.051141728 0.32067022
0.012444638 -0.051161285 0.32079285
0.013371576 -0.051180858 0.32091558
0.014299225 -0.051200453 0.32103842
0.015227585 -0.051220056 0.32116136
0.016157657 -0.051242854 0.32130429
0.017092234 -0.051276699 0.32151651
0.018031094 -0.051319268 0.32178342
0.018971458 -0.051361755 0.32204983
0.019913383 -0.051404312 0.32231668
0.020856868 -0.051446941 0.32258397
0.021804238 -0.051495112 0.32288602
0.022756256 -0.051549885 0.32322946
0.02371026 -0.051604684 0.32357305
0.024666294 -0.051659599 0.32391739
0.025624366 -0.051714629 0.32426244
0.026586553 -0.051773813 0.32463354
0.027555201 -0.05184114 0.32505569
0.028526446 -0.05190878 0.32547981
0.029501418 -0.051978689 0.32591814
0.030485241 -0.052059412 0.3264243
0.031481639 -0.05215615 0.32703087
0.032481752 -0.052253254 0.32763973
0.033483747 -0.052347828 0.32823274
0.034489501 -0.052442942 0.32882911
0.035511028 -0.052556321 0.32954004
0.036539935 -0.05267445 0.33028072
0.037573759 -0.05279351 0.33102727
0.038623326 -0.052928261 0.3318722
0.039678499 -0.053064018 0.33272341
0.040753577 -0.053219378 0.33369756
0.041850049 -0.053394888 0.33479804
0.0429614 -0.05358107 0.33596545
0.044085208 -0.053774267 0.33717683
0.045219187 -0.053971287 0.3384122
0.046399888 -0.054214608 0.33993787
0.047601059 -0.054471318 0.34154749
0.048824165 -0.054742247 0.34324628
0.05011696 -0.055079035 0.34535801
0.051455088 -0.055451602 0.3476941
0.052959498 -0.055985756 0.35104337
0.054793995 -0.056842368 0.35641453
-0.041280221 -0.055549927 0.35470164
-0.039794441 -0.054906256 0.35059163
-0.03846781 -0.054454431 0.34770659
-0.037201911 -0.054066777 0.34523132
-0.036004864 -0.053760689 0.34327686
-0.034831047 -0.053473014 0.34143999
-0.033697922 -0.053232946 0.33990708
-0.03257414 -0.052993748 0.33837974
-0.031482313 -0.052793417 0.33710057
-0.03040348 -0.052602846 0.33588371
-0.029338894 -0.052425239 0.33474964
-0.028289342 -0.05226336 0.33371601
-0.02725317 -0.052115709 0.33277321
-0.026233589 -0.051990204 0.33197182
-0.025218908 -0.051865302 0.33117428
-0.02420993 -0.051742792 0.33039203
-0.023205908 -0.051621307 0.32961631
-0.02220832 -0.051504403 0.32886985
-0.021222202 -0.05140489 0.32823443
-0.020243527 -0.051314987 0.32766038
-0.019268269 -0.051225398 0.32708833
-0.018296409 -0.051136121 0.32651827
-0.017331582 -0.051057901 0.32601881
-0.01637028 -0.05098173 0.32553244
-0.015413938 -0.050912704 0.32509169
-0.014460357 -0.050844479 0.32465607
-0.013509328 -0.050776441 0.32422161
-0.012560843 -0.050708588 0.32378834
-0.011616562 -0.050648209 0.32340282
-0.010675439 -0.050592296 0.32304579
-0.00973807 -0.050545219 0.3227452
-0.0088035362 -0.050504498 0.32248518
-0.0078705065 -0.050463837 0.32222554
-0.0069391723 -0.050424654 0.32197535
-0.0060092979 -0.050385654 0.32172632
-0.005080861 -0.050346714 0.32147768
-0.0041544582 -0.050315104 0.32127586
-0.0032297415 -0.050291691 0.32112634
-0.0023058851 -0.050268296 0.32097697
-0.0013828878 -0.050244924 0.32082772
-0.00046076835 -0.050223753 0.32069254
0.00046058404 -0.050203659 0.32056424
0.0013815968 -0.050198015 0.32052821
0.0023022792 -0.050189689 0.32047504
0.003222621 -0.050180811 0.32041836
0.0041426374 -0.050171938 0.3203617
0.0050623282 -0.050163072 0.32030508
0.0059825028 -0.050160985 0.32029176
0.0069034151 -0.050164815 0.32031623
0.0078251362 -0.050172932 0.32036805
0.0087471567 -0.050181054 0.32041991
0.0096694753 -0.050189182 0.32047179
0.010593051 -0.050201852 0.32055271
0.011518588 -0.050221045 0.32067525
0.012444834 -0.050240256 0.32079792
0.013371787 -0.050259475 0.32092065
0.01429945 -0.050278716 0.32104349
0.015228078 -0.050298803 0.32117176
0.016158899 -0.050323427 0.321329
0.017093373 -0.050356153 0.32153797
0.018032389 -0.050398216 0.32180655
0.018972825 -0.050439946 0.32207301
0.019914817 -0.050481744 0.32233989
0.020858372 -0.050523609 0.32260722
0.021806 -0.050571363 0.32291213
0.022758424 -0.050625879 0.32326025
0.02371252 -0.050679699 0.3236039
0.024668649 -0.050733637 0.32394829
0.025626814 -0.050787684 0.3242934
0.026590437 -0.05084838 0.32468095
0.02755923 -0.050914511 0.32510322
0.028531218 -0.050982013 0.32553425
0.029506359 -0.051050685 0.32597274
0.030492261 -0.051133174 0.32649946
0.031488903 -0.051228218 0.32710633
0.032489259 -0.051323611 0.32771546
0.033492401 -0.051417913 0.32831758
0.034498725 -0.051511794 0.32891706
0.035521217 -0.051624168 0.32963458
0.036550719 -0.051740628 0.3303782
0.037584875 -0.051857613 0.3311252
0.038634893 -0.051990163 0.33197156
0.039690413 -0.052123554 0.33282331
0.040769447 -0.052280821 0.3338275
0.041866474 -0.052453395 0.33492944
0.042979032 -0.052637242 0.33610335
0.044105347 -0.052829482 0.33733085
0.045239922 -0.053023133 0.33856738
0.046423122 -0.053264424 0.34010807
0.047625374 -0.053517174 0.34172195
0.048853766 -0.053788491 0.34345439
0.050151609 -0.054124013 0.34559679
0.051501408 -0.054501489 0.34800708
0.053021077 -0.055040929 0.35145155
0.054930724 -0.055957466 0.35730389
-0.041217636 -0.05444799 0.35416389
-0.039753199 -0.053842943 0.35022828
-0.038439151 -0.053415447 0.34744757
-0.037178632 -0.053041514 0.34501529
-0.0359837 -0.05274323 0.34307507
-0.034814775 -0.052467339 0.34128049
-0.033681948 -0.052231427 0.33974597
-0.03255875 -0.051996812 0.33821988
-0.031470656 -0.051805541 0.33697575
-0.030392313 -0.051618692 0.33576035
-0.029329533 -0.051446885 0.33464283
-0.028282048 -0.051291171 0.33362997
-0.027247803 -0.051149387 0.3327077
-0.026228435 -0.051026229 0.33190662
-0.025213966 -0.05090367 0.3311094
-0.024204509 -0.05078201 0.33031806
-0.023200726 -0.050662808 0.3295427
-0.022203714 -0.050548881 0.32880163
-0.021219201 -0.050454546 0.32818803
-0.02024067 -0.050366316 0.32761413
-0.019265555 -0.050278399 0.32704225
-0.018293837 -0.050190784 0.32647234
-0.017328443 -0.050111983 0.32595977
-0.016368054 -0.050039481 0.32548818
-0.015412033 -0.049972348 0.32505152
-0.014458573 -0.049905397 0.32461601
-0.013507663 -0.049838617 0.32418165
-0.012559296 -0.049772024 0.32374847
-0.011614786 -0.049711283 0.32335338
-0.010673809 -0.049656413 0.32299647
-0.0097374264 -0.049614504 0.32272387
-0.0088029541 -0.049574528 0.32246384
-0.0078699868 -0.049534623 0.32220426
-0.0069386051 -0.049495384 0.32194903
-0.0060088071 -0.049457103 0.32170004
-0.0050804461 -0.049418885 0.32145143
-0.0041542216 -0.049389079 0.32125756
-0.0032295575 -0.049366094 0.32110804
-0.0023057538 -0.049343128 0.32095867
-0.0013828462 -0.049321514 0.32081807
-0.00046076361 -0.049301706 0.32068923
0.00046057868 -0.049281918 0.32056051
0.001381536 -0.049274784 0.32051411
0.0023022839 -0.049268875 0.32047567
0.0032226273 -0.049260158 0.32041898
0.0041426453 -0.049251448 0.32036233
0.005062338 -0.049242742 0.32030571
0.0059825149 -0.049240701 0.32029241
0.0069036456 -0.049246006 0.32032692
0.0078253988 -0.049253978 0.32037878
0.0087474491 -0.04926195 0.32043064
0.0096697984 -0.049269926 0.32048252
0.010593219 -0.049281497 0.32055777
0.01151877 -0.049300335 0.32068032
0.012445031 -0.049319193 0.32080299
0.013371999 -0.049338065 0.32092574
0.014299678 -0.049356952 0.32104859
0.015229248 -0.049379684 0.32119644
0.016160142 -0.049403861 0.3213537
0.017094515 -0.049435493 0.32155946
0.018033657 -0.049476955 0.32182917
0.018974189 -0.049518004 0.32209617
0.019916251 -0.049559042 0.32236311
0.020859875 -0.049600147 0.32263047
0.021807766 -0.049647465 0.32293826
0.022760589 -0.049701694 0.323291
0.023714779 -0.049754534 0.32363471
0.024670999 -0.049807489 0.32397917
0.02562926 -0.049860559 0.32432437
0.026594317 -0.049922664 0.32472834
0.027563306 -0.049987689 0.32515129
0.028535994 -0.050054941 0.32558873
0.029511305 -0.050122373 0.32602736
0.030499283 -0.050206512 0.32657465
0.031496171 -0.050299853 0.32718182
0.032496769 -0.05039354 0.32779121
0.033501066 -0.050487522 0.32840252
0.034507956 -0.050580155 0.32900506
0.035531677 -0.050691862 0.32973167
0.036561508 -0.050806254 0.33047575
0.037595998 -0.050921161 0.33122319
0.038646463 -0.051051501 0.33207101
0.03970569 -0.051186852 0.3329514
0.040785331 -0.051341534 0.33395755
0.04188291 -0.051511165 0.33506092
0.042998608 -0.051694952 0.33625641
0.044125509 -0.051883839 0.33748505
0.045260675 -0.052074108 0.33872268
0.046446376 -0.052313287 0.34027845
0.047654126 -0.052566923 0.34192824
0.048883408 -0.052833583 0.34366277
0.050186306 -0.053167671 0.34583589
0.051547807 -0.053549662 0.3483206
0.053085424 -0.054096576 0.35187808
0.055076338 -0.055076338 0.35825107
-0.043087281 -0.054508004 0.36130768
-0.041155241 -0.053349387 0.35362774
-0.039712045 -0.052781831 0.3498657
-0.038409494 -0.052376583 0.3471795
-0.037156232 -0.052018724 0.34480742
-0.035962556 -0.051726963 0.34287348
-0.034798518 -0.051462594 0.34112111
-0.033665974 -0.051230829 0.33958483
-0.032544591 -0.051002715 0.33807278
-0.031459007 -0.050818399 0.33685103
-0.030381156 -0.05063526 0.33563709
-0.029320177 -0.050469156 0.33453608
-0.028274758 -0.050319482 0.33354396
-0.027242443 -0.050183445 0.33264223
-0.026223287 -0.050062642 0.33184147
-0.025209028 -0.049942415 0.33104455
-0.024199629 -0.049822766 0.33025146
-0.023195544 -0.049704738 0.32946911
-0.022199109 -0.049593754 0.32873344
-0.021216203 -0.04950447 0.32814163
-0.020237815 -0.049417917 0.32756791
-0.019262841 -0.049331665 0.32699618
-0.018291263 -0.049245708 0.32642642
-0.017325304 -0.049166404 0.32590073
-0.016366029 -0.049098089 0.32544792
-0.015410128 -0.049032226 0.32501134
-0.014456787 -0.048966538 0.32457593
-0.013505999 -0.048901033 0.32414171
-0.01255775 -0.048835695 0.32370862
-0.011613012 -0.048774652 0.323304
-0.010672701 -0.048723198 0.32296294
-0.0097367819 -0.048683912 0.32270253
-0.008802372 -0.048644688 0.32244253
-0.0078694671 -0.048605531 0.32218298
-0.0069380617 -0.048566435 0.32192382
-0.0060083163 -0.048528709 0.32167375
-0.0050800317 -0.04849121 0.3214252
-0.0041539851 -0.048463158 0.32123926
-0.0032293738 -0.048440605 0.32108977
-0.0023056457 -0.048418563 0.32094365
-0.0013828317 -0.048399113 0.32081473
-0.00046075886 -0.048379678 0.32068592
0.00046057391 -0.048360262 0.32055721
0.0013814752 -0.048351634 0.32050002
0.0023021998 -0.048346199 0.32046399
0.0032226339 -0.048339508 0.32041964
0.0041426532 -0.048330955 0.32036296
0.0050623482 -0.048322413 0.32030633
0.0059825275 -0.048320413 0.32029307
0.006903877 -0.048327141 0.32033765
0.0078256605 -0.048334964 0.32038951
0.0087477425 -0.048342787 0.32044137
0.0096701225 -0.048350614 0.32049325
0.010593386 -0.048361111 0.32056284
0.011518952 -0.0483796 0.32068539
0.012445227 -0.048398104 0.32080805
0.013372211 -0.048416626 0.32093081
0.014300364 -0.048436716 0.321064
0.015230419 -0.048460424 0.32122114
0.016161386 -0.048484154 0.32137844
0.017095657 -0.048514701 0.32158092
0.018034862 -0.0485554 0.32185069
0.018975554 -0.048595931 0.32211936
0.019917686 -0.048636209 0.32238632
0.02086138 -0.04867655 0.32265374
0.021809528 -0.048723415 0.32296437
0.02276271 -0.048777238 0.32332113
0.023717038 -0.048829198 0.32366556
0.024673354 -0.048881173 0.32401007
0.025631707 -0.04893326 0.32435533
0.026598202 -0.048996691 0.32477579
0.02756791 -0.049061537 0.32520562
0.028540768 -0.049127553 0.32564321
0.029516248 -0.049193747 0.32608199
0.030506311 -0.049279425 0.3266499
0.031503439 -0.049371064 0.32725734
0.032504283 -0.049463041 0.327867
0.033508867 -0.049555365 0.32847899
0.034517191 -0.049648017 0.32909313
0.035542149 -0.049759008 0.32982883
0.036572307 -0.049871329 0.33057335
0.037607223 -0.049984284 0.33132207
0.038658042 -0.050112277 0.33217049
0.039721113 -0.050249599 0.33308074
0.040801227 -0.050401513 0.3340877
0.041899361 -0.050568193 0.33519253
0.043018196 -0.050751802 0.3364096
0.044145681 -0.050937325 0.33763933
0.045281444 -0.051124211 0.33887812
0.046469659 -0.051361199 0.34044901
0.047682911 -0.051615521 0.34213477
0.048913088 -0.051877517 0.34387141
0.050221942 -0.052210931 0.34608147
0.051594291 -0.052596122 0.34863472
0.053149927 -0.053149927 0.35230562
0.055222735 -0.054190531 0.35920331
-0.042910505 -0.053250387 0.35982534
-0.041106496 -0.052271221 0.3532089
-0.039670974 -0.051722918 0.34950387
-0.038379505 -0.051338818 0.34690842
-0.037133861 -0.050997168 0.34459981
-0.035941206 -0.050711565 0.34266993
-0.034782168 -0.050458636 0.34096083
-0.033650011 -0.050231177 0.33942384
-0.032532506 -0.050012659 0.33794725
-0.03144737 -0.049831986 0.3367264
-0.030370004 -0.049652547 0.33551389
-0.02931232 -0.049494572 0.33444643
-0.028267471 -0.049348298 0.33345801
-0.02723708 -0.04921788 0.33257675
-0.02621814 -0.049099427 0.33177632
-0.02520409 -0.048981532 0.3309797
-0.024194902 -0.048864212 0.33018693
-0.023190536 -0.04874745 0.32939795
-0.022194881 -0.048639845 0.32867083
-0.021213204 -0.048554666 0.32809526
-0.020234957 -0.048469782 0.32752168
-0.019260127 -0.048385195 0.3269501
-0.018288691 -0.048300903 0.32638052
-0.017322356 -0.048221692 0.32584527
-0.016364003 -0.048156925 0.32540762
-0.015408223 -0.048092335 0.32497117
-0.014455004 -0.048027914 0.32453588
-0.013504334 -0.047963668 0.32410175
-0.012556206 -0.047899596 0.32366881
-0.011611237 -0.047838297 0.32325459
-0.010671994 -0.047791969 0.32294154
-0.0097361384 -0.047753442 0.32268119
-0.00880179 -0.047714967 0.32242122
-0.0078689475 -0.047676563 0.3221617
-0.0069376044 -0.047638219 0.3219026
-0.0060078255 -0.047600463 0.3216475
-0.0050796168 -0.047563687 0.32139897
-0.004153748 -0.047537338 0.32122093
-0.0032291897 -0.047515221 0.32107148
-0.002305622 -0.047495816 0.32094035
-0.0013828175 -0.047476735 0.32081142
-0.00046075409 -0.047457673 0.32068262
0.00046056916 -0.047438625 0.3205539
0.0013814145 -0.047428563 0.32048592
0.0023020986 -0.047423232 0.32044989
0.0032225759 -0.047417905 0.32041389
0.004142662 -0.047410462 0.32036361
0.005062358 -0.04740208 0.32030696
0.0059825918 -0.047400534 0.32029653
0.006904108 -0.047408208 0.32034838
0.0078259222 -0.047415879 0.32040021
0.0087480349 -0.047423556 0.32045209
0.0096704457 -0.047431231 0.32050395
0.010593554 -0.047440697 0.32056791
0.011519134 -0.047458831 0.32069045
0.012445424 -0.047476985 0.32081312
0.013372421 -0.047495153 0.32093588
0.014301463 -0.047517765 0.32108867
0.015231589 -0.047541022 0.32124582
0.016162628 -0.047564305 0.32140315
0.017096799 -0.047593791 0.3216024
0.018036069 -0.047633719 0.3218722
0.018976916 -0.047673713 0.32214245
0.01991912 -0.047713239 0.32240954
0.020862881 -0.04775282 0.32267699
0.021811293 -0.047799215 0.32299051
0.022764552 -0.047852017 0.3233473
0.0237193 -0.047903683 0.3236964
0.024675708 -0.047954679 0.32404101
0.025635367 -0.048008051 0.32440165
0.026602106 -0.048070472 0.32482344
0.027572518 -0.048135076 0.32525998
0.028545545 -0.048199855 0.32569772
0.029521195 -0.048264813 0.32613665
0.030513341 -0.04835191 0.32672518
0.031510714 -0.048441842 0.32733288
0.032511804 -0.04853211 0.32794285
0.033516631 -0.04862272 0.32855511
0.034526769 -0.048715856 0.32918444
0.035552625 -0.048825603 0.32992604
0.036583111 -0.048935849 0.33067101
0.037618466 -0.049046863 0.33142114
0.038669631 -0.049172495 0.33227006
0.03973655 -0.049311623 0.3332102
0.04081713 -0.049460758 0.33421794
0.041917916 -0.049626958 0.33534098
0.043037802 -0.049807794 0.33656293
0.044165876 -0.04998995 0.3377938
0.045302235 -0.050173443 0.33903372
0.046493035 -0.050408237 0.34062028
0.047711726 -0.050662968 0.34234154
0.048942797 -0.050920285 0.3440803
0.050266944 -0.051262327 0.34639156
0.051640857 -0.051640857 0.34894937
0.053215474 -0.052201845 0.35274011
0.055480871 -0.05340682 0.3608824
-0.042761907 -0.052035574 0.35857928
-0.041063577 -0.051202733 0.35284013
-0.039630149 -0.050666392 0.34914419
-0.038349561 -0.050302669 0.34663776
-0.037111513 -0.049976841 0.34439245
-0.0359197 -0.04969712 0.34246489
-0.034765609 -0.049455304 0.34079853
-0.033634067 -0.049232475 0.33926299
-0.032520428 -0.04902333 0.33782178
-0.031435739 -0.048846301 0.33660185
-0.030358849 -0.048670538 0.33539066
-0.029304745 -0.048520971 0.33436
-0.028260188 -0.048377611 0.33337209
-0.027231719 -0.048252698 0.33251131
-0.026212994 -0.048136588 0.3317112
-0.025199156 -0.048021033 0.33091491
-0.024190176 -0.047906034 0.33012244
-0.023186015 -0.047791582 0.32933375
-0.022191508 -0.047688134 0.32862088
-0.021209948 -0.04760455 0.32804489
-0.020231823 -0.047521256 0.32747093
-0.019257113 -0.047438256 0.32689896
-0.018285803 -0.047355544 0.32632899
-0.017320808 -0.047281124 0.32581615
-0.016362259 -0.047216803 0.32537293
-0.01540632 -0.047152676 0.32493103
-0.014453221 -0.047089525 0.32449585
-0.01350267 -0.047026541 0.32406181
-0.01255466 -0.046963725 0.32362896
-0.011609465 -0.046902236 0.32320523
-0.010671287 -0.04686087 0.32292017
-0.0097354949 -0.046823092 0.32265985
-0.0088012097 -0.046785377 0.32239994
-0.0078684278 -0.046747714 0.32214043
-0.0069371467 -0.046710122 0.32188135
-0.0060073626 -0.046672586 0.3216227
-0.0050792024 -0.046636313 0.32137275
-0.0041535115 -0.046611629 0.32120264
-0.0032291352 -0.046591807 0.32106605
-0.0023055982 -0.046573084 0.32093704
-0.0013828032 -0.046554375 0.32080811
-0.00046074932 -0.046535678 0.32067928
0.00046056436 -0.046517 0.32055056
0.0013813537 -0.046505574 0.32047182
0.0023019975 -0.046500351 0.32043582
0.0032224343 -0.046495121 0.32039979
0.0041426644 -0.046489898 0.32036379
0.0050623678 -0.04648174 0.32030758
0.0059827925 -0.046481695 0.32030725
0.006904339 -0.046489213 0.32035908
0.0078261839 -0.046496741 0.32041094
0.0087483274 -0.046504267 0.32046279
0.0096707689 -0.046511795 0.32051468
0.01059372 -0.046520248 0.32057294
0.011519316 -0.046538036 0.32069552
0.01244562 -0.046555839 0.32081819
0.013373272 -0.046575878 0.32095629
0.014302562 -0.046598669 0.32111335
0.01523276 -0.046621479 0.32127053
0.016163871 -0.046644315 0.32142788
0.017097941 -0.046672758 0.32162389
0.018037274 -0.046711914 0.32189372
0.018978184 -0.046751138 0.322164
0.019920554 -0.046790138 0.32243276
0.020864386 -0.046828955 0.32270026
0.021813056 -0.046874866 0.32301661
0.022766396 -0.046926655 0.3233735
0.023721559 -0.046977989 0.32372725
0.024678063 -0.047028005 0.32407191
0.025639107 -0.047082722 0.32444897
0.026606545 -0.047144931 0.32487765
0.02757713 -0.047208305 0.32531437
0.028550325 -0.047271851 0.32575226
0.029526453 -0.047336061 0.32619473
0.030520372 -0.047423963 0.32680047
0.03151799 -0.047512192 0.32740846
0.032519326 -0.04760075 0.32801872
0.033524547 -0.047689848 0.32863268
0.034535337 -0.047781769 0.32926613
0.035563108 -0.04789165 0.33002332
0.036593921 -0.047999818 0.3307687
0.037629716 -0.048108876 0.33152023
0.03868122 -0.048232142 0.33236966
0.039752003 -0.048372921 0.33333978
0.040833052 -0.048519272 0.33434829
0.041936964 -0.048685439 0.33549336
0.043057423 -0.048862919 0.33671638
0.044186093 -0.049041707 0.33794841
0.045323044 -0.049221799 0.33918944
0.046521012 -0.049459178 0.34082523
0.047740582 -0.049709264 0.34254858
0.048973642 -0.049963009 0.34429714
0.05031202 -0.05031202 0.34670219
0.051696088 -0.050692283 0.34932259
0.053301394 -0.051270865 0.35330963
-0.042638112 -0.050857507 0.35754117
-0.041020751 -0.050136473 0.35247213
-0.039603855 -0.049630146 0.34891254
-0.038319666 -0.049268141 0.34636754
-0.037089199 -0.048957743 0.34418535
-0.035900224 -0.048686605 0.3422792
-0.034749407 -0.048453398 0.34063968
-0.033618134 -0.048234716 0.3391023
-0.032508362 -0.048034742 0.33769643
-0.031424612 -0.047862098 0.3364827
-0.030352872 -0.047697369 0.33532462
-0.029297175 -0.047547877 0.33427364
-0.028252909 -0.047407422 0.33328623
-0.027226364 -0.047287896 0.33244592
-0.026207848 -0.047174126 0.33164608
-0.025194222 -0.047060907 0.33085012
-0.024185449 -0.046948224 0.33005795
-0.023186039 -0.046845261 0.32933408
-0.022191336 -0.046743453 0.32861835
-0.021206126 -0.046653479 0.32798579
-0.020228185 -0.046571866 0.32741204
-0.019253656 -0.046490539 0.32684028
-0.018282527 -0.046409491 0.32627052
-0.017320076 -0.046342906 0.32580239
-0.01636157 -0.04627987 0.32535923
-0.015405667 -0.046217002 0.32491726
-0.01445236 -0.046154309 0.32447651
-0.013501633 -0.04609178 0.32403693
-0.01255348 -0.046029422 0.32359853
-0.011608073 -0.045967974 0.32316652
-0.010670606 -0.045929998 0.32289955
-0.0097348504 -0.045892868 0.32263851
-0.0088006277 -0.045855902 0.32237864
-0.0078679081 -0.045818996 0.32211918
-0.0069366894 -0.045782149 0.32186013
-0.0060069668 -0.045745362 0.32160151
-0.0050787879 -0.045709092 0.32134652
-0.0041533718 -0.045687091 0.32119185
-0.0032291019 -0.045668725 0.32106274
-0.0023055742 -0.04565037 0.3209337
-0.001382789 -0.045632038 0.3208048
-0.00046074454 -0.04561371 0.32067597
0.00046055962 -0.045595404 0.32054725
0.0013812931 -0.045582671 0.32045776
0.0023018962 -0.045577548 0.32042173
0.0032222928 -0.045572426 0.32038572
0.0041424823 -0.045567304 0.32034972
0.005062378 -0.045561403 0.32030824
0.0059829922 -0.045562785 0.32031795
0.0069045699 -0.045570161 0.32036981
0.0078264456 -0.045577537 0.32042167
0.0087486198 -0.045584913 0.32047352
0.009671093 -0.045592293 0.32052541
0.010593887 -0.045599777 0.32057801
0.011519498 -0.045617212 0.32070059
0.012445847 -0.045634773 0.32082403
0.013374299 -0.045657091 0.32098094
0.014303661 -0.045679435 0.32113802
0.015233932 -0.045701798 0.32129523
0.016165113 -0.04572418 0.32145259
0.017099084 -0.045751601 0.32164538
0.01803848 -0.045789987 0.32191524
0.018979456 -0.045828439 0.32218558
0.019921988 -0.045866903 0.32245597
0.020865889 -0.045904957 0.32272351
0.021814821 -0.045950368 0.32304275
0.022768239 -0.046001136 0.32339966
0.023723766 -0.046052016 0.32375738
0.024680419 -0.046101157 0.32410285
0.02564285 -0.046157129 0.32449633
0.026610989 -0.046219088 0.32493192
0.02758174 -0.046281226 0.32536876
0.028555106 -0.046343531 0.3258068
0.029533248 -0.046409391 0.32626981
0.030527407 -0.04649559 0.32687581
0.031525269 -0.046582114 0.3274841
0.032527104 -0.046669323 0.32809719
0.033532899 -0.046757143 0.32871458
0.034542929 -0.046845887 0.32933849
0.035573594 -0.046957146 0.33012065
0.036604736 -0.047063235 0.33086649
0.037640974 -0.047170334 0.33161941
0.038692825 -0.04729123 0.33246934
0.039767466 -0.047433484 0.33346945
0.040849306 -0.047577426 0.33448139
0.041951451 -0.047737855 0.33560926
0.043076508 -0.047916561 0.3368656
0.044206325 -0.048092593 0.33810315
0.045345511 -0.048271026 0.33935758
0.046549022 -0.048508979 0.34103045
0.047769468 -0.048754405 0.34275585
0.049007405 -0.049007405 0.34453449
0.050357174 -0.049360003 0.34701335
0.05175557 -0.049745642 0.3497245
0.053387593 -0.050336875 0.353881
-0.042562298 -0.04974148 0.35690546
-0.040978182 -0.049072638 0.35210636
-0.039590932 -0.048611652 0.34879869
-0.038290411 -0.048235971 0.3461031
-0.037070755 -0.047944844 0.3440142
-0.035891715 -0.047691733 0.34219807
-0.034744479 -0.047467813 0.3405914
-0.033608533 -0.047246777 0.33900544
-0.032501996 -0.047055125 0.3376303
-0.031422906 -0.046892643 0.33646443
-0.030351231 -0.04673126 0.3353065
-0.029289609 -0.046575278 0.3341873
-0.028245633 -0.046437737 0.3332004
-0.027221009 -0.046323474 0.33238053
-0.026202707 -0.046212047 0.33158103
-0.025190338 -0.046103071 0.3307991
-0.024186846 -0.046002433 0.33007699
-0.023187723 -0.045902226 0.32935801
-0.022192946 -0.045802463 0.32864219
-0.021202482 -0.045703128 0.32792944
-0.020224545 -0.045622811 0.32735315
-0.019250199 -0.045543157 0.3267816
-0.018280424 -0.045466695 0.32623297
-0.017319346 -0.045404769 0.32578865
-0.016360881 -0.045343012 0.32534552
-0.015405019 -0.045281418 0.32490358
-0.014451751 -0.045219995 0.32446286
-0.013501305 -0.045159537 0.32402906
-0.012553871 -0.045100946 0.32360864
-0.011608972 -0.045042813 0.32319152
-0.010671439 -0.045005634 0.32292476
-0.0097354511 -0.044968512 0.32265842
-0.0088010067 -0.044931456 0.32239252
-0.0078681009 -0.044894461 0.32212707
-0.0069367313 -0.044857528 0.32186207
-0.0060068914 -0.044820651 0.32159749
-0.0050787046 -0.044784941 0.32134125
-0.0041534281 -0.044764727 0.3211962
-0.0032290977 -0.044746067 0.32106233
-0.0023055505 -0.044727679 0.32093039
-0.0013827746 -0.044709712 0.32080147
-0.0004607398 -0.04469176 0.32067266
0.00046055487 -0.044673823 0.32054394
0.0013812323 -0.044659846 0.32044366
0.0023017949 -0.044654824 0.32040763
0.003222151 -0.044649806 0.32037163
0.0041423384 -0.044645205 0.32033861
0.0050625224 -0.044642244 0.32031736
0.0059831925 -0.044643819 0.32032868
0.0069048014 -0.044651046 0.32038054
0.0078267083 -0.044658273 0.32043239
0.0087489132 -0.044665501 0.32048425
0.0096714161 -0.044672735 0.32053614
0.01059422 -0.04467997 0.32058805
0.01151968 -0.044696357 0.32070565
0.012446803 -0.044716291 0.32084867
0.013375327 -0.044738162 0.32100561
0.014304761 -0.044760056 0.3211627
0.015235104 -0.044781972 0.32131994
0.016166357 -0.044803906 0.32147732
0.017100226 -0.044830322 0.32166687
0.018039687 -0.044867937 0.32193676
0.018980725 -0.044905618 0.32220712
0.019923344 -0.044943359 0.32247794
0.020867394 -0.044980828 0.32274678
0.021816585 -0.045025721 0.32306889
0.022770083 -0.045075472 0.32342586
0.02372569 -0.045125332 0.32378364
0.024682771 -0.045174129 0.32413375
0.025647119 -0.045232192 0.32455036
0.026615433 -0.045292933 0.32498619
0.027586354 -0.045353834 0.32542318
0.028559888 -0.045414902 0.32586136
0.029540047 -0.045482296 0.32634491
0.03053445 -0.045566794 0.32695121
0.03153291 -0.045652125 0.32756346
0.032535199 -0.045737889 0.32817885
0.033541262 -0.04582398 0.32879657
0.034551121 -0.045910392 0.3294166
0.035583775 -0.046021681 0.33021513
0.036615562 -0.046126097 0.33096433
0.037652232 -0.046231221 0.33171862
0.038707469 -0.046353392 0.3325952
0.039782941 -0.046493318 0.33359921
0.040865857 -0.046635158 0.33461693
0.041965049 -0.046788618 0.33571804
0.043090522 -0.04696383 0.33697522
0.044224456 -0.047140352 0.33824182
0.04536818 -0.047319498 0.33952722
0.046577062 -0.04755763 0.34123588
0.047798395 -0.047798395 0.3429634
0.049043886 -0.048053101 0.34479097
0.050401136 -0.048405051 0.34731629
0.051818069 -0.048799541 0.35014683
0.05347608 -0.049401712 0.35446754
-0.042488236 -0.048631113 0.35628441
-0.040955979 -0.048034791 0.3519156
-0.03957817 -0.047594 0.34868625
-0.038272262 -0.047219023 0.34593907
-0.037061926 -0.046945106 0.34393227
-0.035886001 -0.046700962 0.3421436
-0.034739558 -0.046482507 0.34054315
-0.033603411 -0.046265565 0.33895376
-0.032499801 -0.046081811 0.33760753
-0.031421036 -0.045923054 0.33644444
-0.030349592 -0.045765255 0.33528838
-0.02928533 -0.045608301 0.33413848
-0.028238665 -0.045469038 0.3331182
-0.027215658 -0.045359429 0.33231518
-0.026200147 -0.0452548 0.33154863
-0.025192175 -0.045155786 0.33082324
-0.024188606 -0.045057207 0.33010101
-0.023189409 -0.044959057 0.32938194
-0.022194555 -0.044861335 0.328666
-0.021204017 -0.044764034 0.32795316
-0.020220911 -0.044674106 0.32729432
-0.019246746 -0.044596117 0.32672295
-0.018279651 -0.044527352 0.32621917
-0.017318614 -0.044466708 0.32577488
-0.01636019 -0.044406228 0.32533178
-0.01540467 -0.044346776 0.32489622
-0.014452226 -0.044289082 0.32447353
-0.013502259 -0.044231538 0.32405195
-0.012554755 -0.044174138 0.32363144
-0.011609878 -0.04411754 0.32321677
-0.010672271 -0.044081118 0.32294995
-0.0097362101 -0.044044759 0.32268357
-0.0088016931 -0.044008464 0.32241765
-0.0078687137 -0.043972224 0.32215214
-0.0069375923 -0.043938085 0.32190204
-0.0060079293 -0.0439041 0.32165304
-0.0050798692 -0.043871596 0.32141492
-0.0041541923 -0.043849807 0.3212553
-0.0032295831 -0.043830059 0.32111061
-0.0023058839 -0.043811794 0.32097679
-0.0013829542 -0.043793548 0.32084313
-0.00046079277 -0.043775313 0.32070953
0.00046060103 -0.043757096 0.32057607
0.0013815073 -0.043747731 0.32050744
0.0023023591 -0.043744825 0.32048616
0.0032230888 -0.043741919 0.32046488
0.0041434471 -0.043736387 0.32042435
0.0050632362 -0.043727949 0.32036254
0.005984135 -0.043730218 0.32037914
0.0069055418 -0.043735098 0.3204149
0.0078271553 -0.043739982 0.32045069
0.0087492056 -0.043746028 0.32049498
0.0096717402 -0.04375311 0.32054687
0.010594574 -0.043760195 0.32059878
0.01152007 -0.043776266 0.3207165
0.012447759 -0.043797672 0.32087332
0.013376354 -0.043819092 0.32103026
0.01430586 -0.043840539 0.32118738
0.015236275 -0.043862004 0.32134464
0.016167602 -0.043883491 0.32150206
0.017101368 -0.04390892 0.32168835
0.018040894 -0.043945767 0.3219583
0.018981995 -0.043982673 0.3222287
0.01992468 -0.044019643 0.32249954
0.020868899 -0.044056565 0.32277006
0.021818351 -0.044100922 0.32309502
0.02277193 -0.04414966 0.32345209
0.023727614 -0.044198498 0.32380989
0.024685537 -0.044247661 0.32417008
0.025651397 -0.04430696 0.32460451
0.026619881 -0.044366468 0.32504049
0.02759097 -0.044426136 0.32547763
0.028564673 -0.044485968 0.32591596
0.029546877 -0.044554815 0.32642037
0.030541945 -0.044638228 0.32703146
0.031540744 -0.044721954 0.32764485
0.032543298 -0.044805989 0.32826054
0.033549625 -0.044890344 0.32887855
0.034559753 -0.044975024 0.32949892
0.035591617 -0.045082714 0.3302879
0.036626391 -0.045188405 0.3310622
0.037663504 -0.045291558 0.33181792
0.038722493 -0.045415267 0.33272427
0.039798748 -0.045552783 0.33373174
0.040882424 -0.04569212 0.33475256
0.041978657 -0.045838762 0.3358269
0.043104548 -0.046010472 0.33708489
0.044238903 -0.046183471 0.33835232
0.045390993 -0.046367142 0.33969796
0.046600755 -0.046600755 0.34140947
0.04782277 -0.046836734 0.34313831
0.049081672 -0.047098573 0.34505662
0.050438445 -0.047442105 0.3475734
0.051878106 -0.047848739 0.35055253
0.053568348 -0.0484666 0.35507914
-0.042493645 -0.047613364 0.35632977
-0.040933847 -0.046998125 0.35172543
-0.039565418 -0.04657701 0.34857389
-0.038266681 -0.046218198 0.34588861
-0.037053153 -0.045945909 0.34385085
-0.035880893 -0.045711275 0.3420949
-0.034734331 -0.045497082 0.34049192
-0.033598129 -0.045284431 0.33890048
-0.032497611 -0.045108624 0.33758476
-0.031418923 -0.044953231 0.33642182
-0.030347643 -0.044798903 0.33526686
-0.029283693 -0.04464563 0.3341198
-0.028233102 -0.044503026 0.33305258
-0.027214542 -0.044402674 0.33230156
-0.026202064 -0.04430531 0.33157289
-0.025194013 -0.044208363 0.33084738
-0.024190368 -0.044111848 0.33012506
-0.023191094 -0.04401575 0.3294059
-0.022196164 -0.04392007 0.32868984
-0.021205552 -0.043824807 0.32797691
-0.020219225 -0.043729953 0.32726705
-0.019243293 -0.043649416 0.32666433
-0.018278878 -0.043588094 0.3262054
-0.017318249 -0.043529652 0.32576802
-0.016360758 -0.043472871 0.32534307
-0.01540576 -0.043416236 0.32491922
-0.014453249 -0.043359745 0.32449648
-0.013503212 -0.0433034 0.3240748
-0.012555641 -0.043247208 0.32365426
-0.011610785 -0.043192122 0.32324201
-0.010673104 -0.043156464 0.32297516
-0.0097371619 -0.043121718 0.3227151
-0.0088029802 -0.043088272 0.32246482
-0.0078702476 -0.043054882 0.32221493
-0.0069389585 -0.043021541 0.32196543
-0.0060091102 -0.042988252 0.32171628
-0.005081078 -0.042958204 0.32149142
-0.0041551804 -0.042936865 0.32133171
-0.0032302025 -0.042915549 0.32117218
-0.0023062306 -0.042895887 0.32102504
-0.0013831619 -0.042878021 0.32089132
-0.00046086201 -0.042860165 0.32075772
0.00046068401 -0.042843614 0.32063383
0.0013819603 -0.042840768 0.32061255
0.0023031142 -0.042837922 0.32059124
0.0032237459 -0.042829767 0.32053021
0.0041440162 -0.0428215 0.32046834
0.005063931 -0.042813238 0.3204065
0.0059851343 -0.042816728 0.32043263
0.0069066952 -0.042821512 0.32046843
0.0078284619 -0.042826291 0.32050419
0.008750435 -0.042831078 0.32054001
0.0096726138 -0.042835858 0.3205758
0.010594998 -0.042840645 0.32061163
0.011520954 -0.042857949 0.32074112
0.012448722 -0.04287893 0.32089815
0.013377487 -0.042900216 0.32105744
0.014307172 -0.042921517 0.32121685
0.015237783 -0.042942841 0.32137644
0.016169317 -0.042964187 0.32153618
0.017103421 -0.042989679 0.32172695
0.018042373 -0.043024119 0.32198471
0.018983265 -0.043059602 0.32225025
0.019926015 -0.043095801 0.32252115
0.020870348 -0.043132056 0.32279247
0.021820119 -0.043175977 0.32312119
0.022775333 -0.043226652 0.32350042
0.023733146 -0.043278091 0.32388538
0.024693342 -0.043329827 0.32427257
0.025657371 -0.04338428 0.32468009
0.02662614 -0.043442648 0.3251169
0.027597517 -0.043501172 0.32555488
0.028571516 -0.043559853 0.32599404
0.029553395 -0.043626439 0.32649237
0.030546686 -0.043705259 0.32708222
0.031546924 -0.043789014 0.32770905
0.032551009 -0.043873101 0.32833833
0.033558 -0.043956254 0.32896063
0.034568392 -0.044039182 0.32958126
0.035599466 -0.044143338 0.33036074
0.036637228 -0.044250157 0.33116016
0.037674781 -0.044351324 0.33191726
0.038737528 -0.04447642 0.33285347
0.039814837 -0.044611804 0.33386666
0.040899001 -0.044748321 0.33488831
0.041992273 -0.044888292 0.33593583
0.043118577 -0.045056492 0.33719462
0.044253364 -0.045225963 0.33846292
0.045412175 -0.045412175 0.33985648
0.046622608 -0.04564108 0.34156957
0.047845311 -0.045872308 0.34330004
0.04911777 -0.046140935 0.34531039
0.050475817 -0.046477731 0.34783092
0.051937662 -0.046895169 0.35095495
0.053660933 -0.047528252 0.35569283
-0.042501282 -0.046597794 0.35639381
-0.040920541 -0.045972459 0.35161108
-0.03955267 -0.045560669 0.3484616
-0.038267098 -0.045224752 0.3458924
-0.037053555 -0.044958316 0.34385461
-0.035875563 -0.044721592 0.34204409
-0.034728847 -0.044511624 0.34043816
-0.03359285 -0.044303615 0.33884725
-0.03249542 -0.044135574 0.33756202
-0.031416815 -0.043983541 0.33639923
-0.030341014 -0.043825909 0.33519363
-0.029268904 -0.043663446 0.33395106
-0.028223684 -0.043531444 0.33294147
-0.027205547 -0.043433417 0.33219174
-0.026194558 -0.043340087 0.33147791
-0.025187904 -0.043247156 0.33076715
-0.024185559 -0.043154623 0.33005944
-0.023187494 -0.043062489 0.32935476
-0.022193681 -0.042970743 0.32865307
-0.021204095 -0.042879391 0.32795438
-0.020218708 -0.042788427 0.32725865
-0.019241199 -0.042706076 0.3266288
-0.018278418 -0.042649642 0.32619718
-0.017318178 -0.042593356 0.32576668
-0.016360467 -0.042537216 0.32533732
-0.015405281 -0.042481229 0.32490909
-0.014452604 -0.042425387 0.32448199
-0.013502427 -0.042369686 0.324056
-0.012554744 -0.042314138 0.32363114
-0.011610501 -0.042262223 0.32323408
-0.010673497 -0.042229924 0.32298705
-0.0097382283 -0.04219899 0.32275045
-0.0088043297 -0.042168103 0.32251424
-0.0078717964 -0.042137261 0.32227835
-0.0069403248 -0.042104635 0.32202882
-0.0060102926 -0.04207205 0.32177958
-0.0050822878 -0.042044379 0.32156795
-0.0041561695 -0.042023491 0.32140818
-0.0032309708 -0.042002618 0.32124856
-0.0023066907 -0.041981768 0.32108909
-0.0013833698 -0.041962218 0.32093954
-0.00046093122 -0.041944738 0.32080588
0.00046083517 -0.041935999 0.32073903
0.0013823287 -0.041930638 0.32069802
0.0023034364 -0.041922539 0.32063609
0.0032241882 -0.041914448 0.32057419
0.0041445848 -0.041906357 0.32051232
0.0050646262 -0.041898273 0.32045048
0.0059861341 -0.041902937 0.32048616
0.0069078491 -0.041907616 0.32052195
0.0078297695 -0.041912295 0.32055774
0.0087518971 -0.041916981 0.32059357
0.009675541 -0.041927345 0.32067284
0.010600264 -0.041940175 0.32077098
0.011525667 -0.04195343 0.32087234
0.012453484 -0.041972853 0.3210209
0.013382605 -0.041993693 0.32118028
0.014312651 -0.042014554 0.32133985
0.01524362 -0.042035438 0.32149956
0.016176125 -0.042057924 0.32167155
0.017111003 -0.042083822 0.32186961
0.018052198 -0.042121798 0.32216007
0.018994497 -0.042158518 0.32244092
0.019937053 -0.04219237 0.32269982
0.020881124 -0.042226274 0.32295913
0.021829274 -0.042265188 0.32325676
0.022785239 -0.042315442 0.32364112
0.023743482 -0.042365823 0.32402644
0.024704181 -0.042416614 0.32441491
0.025667369 -0.042467829 0.32480663
0.026633292 -0.042519819 0.32520425
0.027604943 -0.042577114 0.32564247
0.028579215 -0.042634565 0.32608187
0.029563865 -0.04270336 0.32660803
0.030552087 -0.042772923 0.32714006
0.031548146 -0.042848974 0.32772174
0.032552272 -0.042931255 0.32835105
0.033560261 -0.043013856 0.3289828
0.034578823 -0.043105107 0.32968071
0.035607316 -0.043203544 0.33043358
0.036646374 -0.04330935 0.33124283
0.037686065 -0.043410528 0.33201668
0.038752884 -0.043537188 0.3329854
0.039830934 -0.043670062 0.33400166
0.04091559 -0.043803751 0.33502415
0.042006906 -0.043938257 0.33605289
0.043132622 -0.044101894 0.33730444
0.044272218 -0.044272218 0.33860713
0.045434132 -0.044457056 0.34002081
0.046644483 -0.044680506 0.34172982
0.047870304 -0.044909254 0.34347937
0.04915392 -0.045181885 0.34556454
0.050514143 -0.045512743 0.34809503
0.051997352 -0.045939408 0.35135829
0.053753838 -0.046586659 0.35630867
-0.042505313 -0.045577988 0.35642761
-0.040871721 -0.044908434 0.35119158
-0.039493416 -0.04449258 0.34793955
-0.038222194 -0.044178903 0.34548652
-0.037012532 -0.043921541 0.34347391
-0.035843376 -0.043699462 0.34173721
-0.034702461 -0.043500271 0.3401795
-0.033572976 -0.043304272 0.33864677
-0.032473117 -0.04313593 0.33733031
-0.031386241 -0.042975008 0.33607188
-0.030309021 -0.042817507 0.33484018
-0.029255895 -0.042684831 0.33380264
-0.028211229 -0.042555921 0.33279455
-0.0271929 -0.042459089 0.3320373
-0.026179198 -0.042362701 0.33128354
-0.025172269 -0.042270415 0.33056182
-0.024170576 -0.042180024 0.32985497
-0.023173159 -0.042090025 0.32915115
-0.022179993 -0.042000409 0.32845035
-0.021191042 -0.041911174 0.3277525
-0.020208256 -0.04182639 0.32708949
-0.019235978 -0.041756146 0.32654017
-0.018270934 -0.041695211 0.32606363
-0.017311096 -0.041640207 0.3256335
-0.016353788 -0.041585349 0.32520449
-0.015398999 -0.041530635 0.32477662
-0.014446718 -0.04147606 0.32434985
-0.013496966 -0.041421723 0.32392493
-0.012550396 -0.041369822 0.32351905
-0.011607818 -0.041323833 0.3231594
-0.010669932 -0.041288 0.32287917
-0.0097348085 -0.041257046 0.32263711
-0.0088012395 -0.04122686 0.32240105
-0.0078690359 -0.041196719 0.32216534
-0.0069381944 -0.041166618 0.32192996
-0.0060087116 -0.041136567 0.32169494
-0.0050819325 -0.041117452 0.32154548
-0.0041561848 -0.041100048 0.32140937
-0.0032312204 -0.041082662 0.32127339
-0.0023070385 -0.041065287 0.32113752
-0.001383638 -0.041047927 0.32100177
-0.00046101701 -0.041030515 0.3208656
0.00046092854 -0.04102264 0.32080403
0.0013825186 -0.04101472 0.32074207
0.0023037528 -0.0410068 0.32068014
0.0032246313 -0.040998884 0.32061824
0.0041451543 -0.040990967 0.32055634
0.0050654705 -0.040984262 0.32050389
0.0059871338 -0.040988836 0.32053968
0.0069090025 -0.040993415 0.32057548
0.0078321854 -0.041003793 0.32065663
0.0087562511 -0.041016124 0.32075307
0.0096808746 -0.04102847 0.3208496
0.010606207 -0.041041411 0.32095081
0.011532131 -0.041054387 0.32105228
0.012458639 -0.041067366 0.32115379
0.013387728 -0.04108648 0.32130325
0.014318132 -0.041106895 0.3214629
0.015249997 -0.041128781 0.32163405
0.016184196 -0.041154101 0.32183206
0.017119549 -0.041179456 0.32203034
0.018056342 -0.041205499 0.322234
0.019003086 -0.041250601 0.32258672
0.019949323 -0.041290458 0.32289842
0.020893985 -0.041323662 0.32315806
0.021840168 -0.041356914 0.32341811
0.022795154 -0.041403443 0.32378197
0.023753827 -0.041452758 0.32416761
0.024715032 -0.041502599 0.32455739
0.025678655 -0.041552734 0.32494944
0.02664461 -0.041602988 0.32534245
0.027612906 -0.041653365 0.3257364
0.028588966 -0.04171177 0.32619312
0.029574342 -0.041779626 0.32672378
0.030562932 -0.041847706 0.32725617
0.031554747 -0.041916009 0.32779032
0.032553535 -0.041989345 0.32836381
0.03356966 -0.042080276 0.32907492
0.034593537 -0.042175684 0.32982102
0.035622068 -0.042271521 0.33057049
0.036655284 -0.042367797 0.33132339
0.037697352 -0.04246917 0.33211613
0.038768515 -0.042597502 0.33311972
0.039847054 -0.042727564 0.33413681
0.040932197 -0.042858418 0.33516011
0.042024009 -0.042990077 0.33618972
0.043146677 -0.043146677 0.33741435
0.044294272 -0.043320768 0.33877578
0.04545686 -0.043501724 0.34019089
0.046666376 -0.043719027 0.34189022
0.047905352 -0.043954395 0.34373084
0.049190126 -0.044221427 0.34581909
0.050557967 -0.044551078 0.34839702
0.052057181 -0.044981446 0.35176256
0.053896945 -0.045684077 0.35725725
-0.042306341 -0.0443452 0.35475913
-0.040797647 -0.043819696 0.35055512
-0.039440818 -0.043434825 0.34747618
-0.038170964 -0.043128233 0.34502345
-0.036975484 -0.042891558 0.34313008
-0.035810657 -0.042678453 0.34142524
-0.034660611 -0.042471454 0.33976924
-0.033532664 -0.042280316 0.33824018
-0.032436963 -0.042119637 0.33695474
-0.031356081 -0.041968912 0.33574894
-0.030296855 -0.041838512 0.33470577
-0.029244188 -0.041708924 0.33366907
-0.028198782 -0.041581254 0.33264771
-0.027180932 -0.041486688 0.33189118
-0.0261677 -0.041392546 0.33113804
-0.025159057 -0.041298829 0.33038834
-0.024155613 -0.041206632 0.32965076
-0.023158845 -0.041118763 0.32894781
-0.022166317 -0.041031267 0.32824785
-0.021179309 -0.040946666 0.32757103
-0.020203969 -0.040877797 0.32702008
-0.019231901 -0.040809158 0.32647097
-0.018263457 -0.040741559 0.32593021
-0.017304024 -0.040687837 0.32550043
-0.016347114 -0.040634256 0.32507178
-0.015392723 -0.040580813 0.32464424
-0.014441282 -0.040528759 0.32422781
-0.013492643 -0.040477928 0.32382116
-0.012546379 -0.040427223 0.32341552
-0.011605138 -0.04038588 0.32308477
-0.010667471 -0.040350869 0.32280469
-0.0097314278 -0.040315915 0.32252505
-0.0087981522 -0.040286276 0.32228795
-0.0078662783 -0.040256836 0.32205242
-0.0069357636 -0.040227428 0.32181719
-0.006007323 -0.040202852 0.32162058
-0.0050809672 -0.040185831 0.32148442
-0.004155396 -0.040168826 0.32134837
-0.0032306074 -0.040151834 0.32121244
-0.0023065493 -0.040133957 0.32106942
-0.0013831456 -0.040111221 0.32088754
-0.00046090581 -0.040098805 0.3207882
0.00046085464 -0.040094353 0.32075259
0.0013824104 -0.040089902 0.32071698
0.0023037617 -0.040085454 0.32068139
0.0032249086 -0.040081006 0.32064581
0.0041457233 -0.040075324 0.32060036
0.0050663166 -0.040069956 0.32055742
0.0059890146 -0.040080328 0.32064039
0.0069117318 -0.040088043 0.32070211
0.0078346673 -0.040095061 0.32075825
0.0087579256 -0.04010208 0.3208144
0.0096819345 -0.040110871 0.32088473
0.010609805 -0.040132739 0.32105967
0.011537386 -0.040150102 0.32119858
0.012465632 -0.040167034 0.32133403
0.013393249 -0.040179748 0.32143575
0.014324085 -0.04019985 0.32159656
0.015257606 -0.040224597 0.32179454
0.016192278 -0.040249374 0.32199275
0.017128102 -0.040274188 0.32219124
0.01806508 -0.040299024 0.32238993
0.019007454 -0.040332891 0.32266086
0.019956497 -0.040377099 0.32301453
0.020906866 -0.04041994 0.32335725
0.021853641 -0.040452484 0.32361761
0.022805078 -0.04049065 0.32392293
0.023764178 -0.040538892 0.32430887
0.024725892 -0.040587783 0.3247
0.025689952 -0.040636834 0.32509241
0.026656346 -0.040686 0.32548574
0.027626781 -0.040737793 0.32590008
0.028606407 -0.040799305 0.32639214
0.029592635 -0.040866021 0.32692587
0.030582095 -0.040932957 0.32746136
0.031575177 -0.041000605 0.32800254
0.032572821 -0.041070078 0.32855833
0.033588909 -0.04115824 0.32926363
0.034612846 -0.041250926 0.33000511
0.035641406 -0.041344032 0.33074993
0.036674615 -0.041437555 0.33149812
0.037715878 -0.04153521 0.33227935
0.038784213 -0.041657116 0.33325461
0.03986318 -0.041784298 0.33427206
0.040948816 -0.041912317 0.33529618
0.042041123 -0.042041123 0.33632663
0.043162726 -0.042192776 0.33753985
0.044316344 -0.042368371 0.33894461
0.045479607 -0.042545438 0.34036112
0.046688288 -0.042756643 0.34205076
0.047940448 -0.042998135 0.34398267
0.049226388 -0.043259554 0.34607401
0.050601866 -0.043587748 0.34869954
0.052117143 -0.044021279 0.35216776
0.054063808 -0.044795725 0.3583633
-0.042149734 -0.043165389 0.35344589
-0.040725634 -0.042736776 0.34993634
-0.039388489 -0.04238002 0.34701514
-0.038119871 -0.042080376 0.34456161
-0.036941592 -0.041867137 0.34281558
-0.035777994 -0.041659307 0.34111384
-0.034625892 -0.041453533 0.3394289
-0.033493217 -0.041259758 0.33784226
-0.032408845 -0.041115697 0.33666265
-0.03134346 -0.040987603 0.33561379
-0.030284697 -0.040860306 0.33457145
-0.029232489 -0.040733796 0.33353558
-0.028186779 -0.040608071 0.33250612
-0.027168974 -0.040515136 0.33174515
-0.026156215 -0.040423241 0.3309927
-0.02514804 -0.040331762 0.33024365
-0.024144417 -0.040240694 0.32949796
-0.023145318 -0.040150039 0.32875568
-0.022153225 -0.040064342 0.32805398
-0.021174807 -0.039996859 0.32750139
-0.020199679 -0.039929599 0.32695067
-0.019227829 -0.039862569 0.32640183
-0.018259231 -0.03979576 0.32585478
-0.017296955 -0.039736249 0.32536748
-0.016340472 -0.039684001 0.32493967
-0.015387364 -0.03963412 0.32453123
-0.014436651 -0.039584365 0.32412383
-0.013488322 -0.039534733 0.32371745
-0.012542366 -0.039485227 0.32331207
-0.011602459 -0.039448358 0.32301018
-0.01066501 -0.039414167 0.32273021
-0.0097291851 -0.039380033 0.32245073
-0.0087950667 -0.039346352 0.32217494
-0.0078635216 -0.039317604 0.32193956
-0.0069333352 -0.039288901 0.32170451
-0.0060061817 -0.039271191 0.32155949
-0.0050800028 -0.039254565 0.32142338
-0.004154352 -0.039235547 0.32126763
-0.0032292048 -0.039211772 0.32107297
-0.0023053356 -0.039190706 0.32090047
-0.0013827514 -0.039177954 0.32079607
-0.00046076716 -0.03916521 0.3206917
0.00046071372 -0.039160665 0.32065451
0.0013819878 -0.039156321 0.32061893
0.0023030574 -0.039151974 0.32058334
0.0032239228 -0.039147634 0.32054779
0.0041446732 -0.039144136 0.32051915
0.0050654043 -0.039141763 0.32049972
0.005987674 -0.039150178 0.32056862
0.0069100638 -0.039157026 0.32062471
0.0078327758 -0.03916388 0.32068083
0.0087558115 -0.039170735 0.32073694
0.0096776793 -0.039171562 0.32074371
0.010608914 -0.039206859 0.32103273
0.011536604 -0.039224453 0.3211768
0.012464925 -0.039241429 0.32131582
0.013393894 -0.039257966 0.32145122
0.014323891 -0.039275184 0.32159221
0.015260745 -0.039307978 0.32186073
0.016199732 -0.039342206 0.32214099
0.017136663 -0.039368007 0.32235226
0.018074116 -0.039392304 0.32255119
0.019012725 -0.039416622 0.32275033
0.019961087 -0.039457962 0.32308882
0.020912437 -0.039501272 0.32344344
0.021865878 -0.039544675 0.32379884
0.022816028 -0.039578825 0.32407847
0.023774587 -0.039624311 0.32445091
0.02473676 -0.039672162 0.32484272
0.025702355 -0.039721821 0.32524934
0.026672406 -0.039774641 0.32568184
0.02764504 -0.0398276 0.32611549
0.028628288 -0.039891876 0.3266418
0.029615309 -0.039957162 0.32717636
0.030606996 -0.040024534 0.327728
0.031602163 -0.040092297 0.32828286
0.032600708 -0.040160295 0.32883963
0.033611216 -0.040238779 0.32948229
0.034635883 -0.040329453 0.33022475
0.035665184 -0.04042054 0.33097059
0.036699835 -0.040512808 0.33172607
0.037748173 -0.040615123 0.33256385
0.038808733 -0.040725216 0.33346531
0.039885625 -0.040846724 0.33446026
0.040968966 -0.040968966 0.3354612
0.042058811 -0.041091941 0.33646813
0.043184157 -0.041243296 0.33770746
0.044338442 -0.041415028 0.33911362
0.045502376 -0.041588191 0.34053153
0.046713196 -0.041796017 0.34223324
0.0479756 -0.042040475 0.34423488
0.049262702 -0.042296261 0.3463293
0.050645843 -0.042622738 0.34900257
0.052197922 -0.043075953 0.35271358
0.054270256 -0.043933064 0.35973176
-0.043935634 -0.042901855 0.3597528
-0.042060092 -0.042060092 0.35269421
-0.040671218 -0.041675445 0.34946877
-0.039336294 -0.041328005 0.34655532
-0.038081776 -0.041049186 0.34421727
-0.036908381 -0.040845271 0.34250736
-0.035748579 -0.040645644 0.3408334
-0.03460006 -0.040447958 0.3391757
-0.033470057 -0.040261082 0.33760864
-0.032396752 -0.04013329 0.33653703
-0.031331636 -0.040008087 0.33548716
-0.030273139 -0.039883662 0.33444378
-0.029221211 -0.039760008 0.3334069
-0.028175801 -0.039637145 0.33237663
-0.027159013 -0.039547335 0.33162352
-0.026147749 -0.039459329 0.33088556
-0.025140973 -0.03937171 0.33015084
-0.024138661 -0.03928449 0.32941943
-0.023140062 -0.039196432 0.32868102
-0.02214984 -0.039115675 0.32800385
-0.021171423 -0.039049514 0.32744905
-0.020196309 -0.038983576 0.32689613
-0.019224485 -0.038917862 0.32634509
-0.01825593 -0.038852364 0.32579586
-0.017292036 -0.038790245 0.32527494
-0.016335219 -0.038737807 0.32483524
-0.015382425 -0.038689129 0.32442707
-0.014432022 -0.038640574 0.32401991
-0.013484002 -0.038592145 0.32361379
-0.012538637 -0.0385447 0.32321593
-0.01159978 -0.038511269 0.32293561
-0.010662549 -0.038477898 0.32265577
-0.0097269434 -0.038444586 0.32237643
-0.0087929545 -0.038411327 0.32209754
