# .PCD v0.7 - Point Cloud Data file format
VERSION 0.7
FIELDS x y z
SIZE 4 4 4
TYPE F F F
COUNT 1 1 1
WIDTH 1334
HEIGHT 1
VIEWPOINT 0 0 0 1 0 0 0
POINTS 1334
DATA ascii
-0.025704781 0.0428413 0.25928119
-0.024963779 0.042848278 0.25932342
-0.024222631 0.042855423 0.25936666
-0.023481233 0.042862568 0.2594099
-0.022739589 0.042869717 0.25945318
-0.021997698 0.042876869 0.25949645
-0.02125556 0.042884022 0.25953975
-0.020513171 0.042891178 0.25958306
-0.019770538 0.042898338 0.25962639
-0.019027656 0.042905498 0.25966972
-0.018284526 0.042912662 0.25971308
-0.017541129 0.042919785 0.25975618
-0.016797712 0.042927485 0.25980279
-0.016054202 0.042935655 0.25985223
-0.01531034 0.042943638 0.25990054
-0.014566203 0.042951625 0.25994888
-0.013821788 0.042959612 0.25999722
-0.013077096 0.042967603 0.26004559
-0.012332127 0.042975593 0.26009396
-0.011586881 0.042983592 0.26014236
-0.010841358 0.042991593 0.26019078
-0.010095558 0.042999599 0.26023924
-0.0093494803 0.043007609 0.2602877
-0.008603123 0.043015614 0.26033616
-0.0078564882 0.043023627 0.26038465
-0.0071095759 0.043031644 0.26043317
-0.0063623847 0.043039661 0.26048169
-0.0056149131 0.043047667 0.26053014
-0.0048671374 0.043055449 0.26057723
-0.0041190912 0.043063227 0.26062432
-0.0033707744 0.043071009 0.26067141
-0.0026221874 0.043078791 0.26071852
-0.0018733311 0.043086618 0.26076588
-0.0011242031 0.043094452 0.2608133
-0.0003748025 0.043102287 0.26086071
0.00037487067 0.043110125 0.26090816
0.0011248505 0.04311927 0.2609635
0.0018751527 0.043128513 0.26101944
0.002625555 0.043134116 0.26105335
0.0033737202 0.04310865 0.26089922
0.0041210656 0.043083869 0.26074925
0.0048734033 0.043110874 0.26091269
0.0056265211 0.043136664 0.26106876
0.0063803187 0.043160979 0.26121593
0.0071322429 0.043168839 0.26126349
0.0078844409 0.043176703 0.26131108
0.0086369133 0.043184567 0.26135868
0.0093978373 0.043230053 0.26163396
0.010179501 0.043357134 0.26240307
-0.053883068 0.046016928 0.27373981
-0.050181869 0.043490954 0.2587136
-0.049333867 0.043398965 0.2581664
-0.048591588 0.043398596 0.2581642
-0.047850147 0.043398973 0.25816643
-0.047108691 0.043399345 0.25816867
-0.046382971 0.043414462 0.25825858
-0.045663554 0.043436065 0.25838709
-0.044933569 0.043448161 0.25845906
-0.044214368 0.043471269 0.25859651
-0.043500956 0.043500956 0.25877312
-0.042744149 0.043487526 0.25869322
-0.041987646 0.043473933 0.25861236
-0.041232634 0.043461423 0.25853795
-0.040494706 0.043466795 0.2585699
-0.0397567 0.043472283 0.25860253
-0.039018508 0.043477766 0.25863516
-0.038280133 0.043483257 0.25866783
-0.037541568 0.043488748 0.25870049
-0.036802817 0.043494239 0.25873315
-0.03606388 0.043499731 0.25876582
-0.035324756 0.043505225 0.25879851
-0.034585916 0.043511312 0.25883472
-0.033846967 0.04351753 0.2588717
-0.03310781 0.043523747 0.25890869
-0.03236844 0.043529969 0.2589457
-0.031628858 0.043536194 0.25898272
-0.030889066 0.043542419 0.25901976
-0.030149059 0.043548644 0.25905678
-0.029408846 0.043554872 0.25909385
-0.028668417 0.043561101 0.2591309
-0.027927814 0.043567389 0.2591683
-0.027187316 0.043574192 0.25920877
-0.026446585 0.04358099 0.25924921
-0.025705624 0.0435878 0.25928971
-0.024964577 0.04359486 0.2593317
-0.024223404 0.043602128 0.25937495
-0.023481984 0.043609396 0.25941819
-0.022740316 0.043616671 0.25946146
-0.0219984 0.043623947 0.25950474
-0.021256238 0.043631226 0.25954804
-0.020513827 0.043638505 0.25959134
-0.01977117 0.043645788 0.25963467
-0.019028263 0.043653075 0.25967801
-0.018285109 0.043660361 0.25972137
-0.017541707 0.043667652 0.25976473
-0.016798176 0.043675259 0.25980997
-0.016054574 0.04368338 0.25985828
-0.015310696 0.043691501 0.25990659
-0.014566542 0.043699626 0.25995493
-0.013822109 0.043707751 0.26000327
-0.013077401 0.043715883 0.26005164
-0.012332415 0.043724019 0.26010004
-0.011587152 0.043732155 0.26014844
-0.010841612 0.043740295 0.26019686
-0.010095795 0.043748442 0.26024532
-0.0093496982 0.043756589 0.26029378
-0.0086033242 0.043764733 0.26034224
-0.0078566717 0.043772884 0.26039073
-0.0071097417 0.043781042 0.26043925
-0.0063625337 0.043789204 0.26048779
-0.0056150467 0.043797363 0.26053634
-0.0048672687 0.04380542 0.26058426
-0.0041192025 0.043813337 0.26063135
-0.0033708659 0.043821257 0.26067847
-0.0026222584 0.043829177 0.26072559
-0.0018733804 0.043837104 0.26077273
-0.0011242321 0.043845054 0.26082003
-0.00037481223 0.04385303 0.26086748
0.00037488039 0.043861005 0.26091492
0.0011248617 0.043869607 0.26096609
0.0018751716 0.043879014 0.26102206
0.0026255453 0.043884113 0.2610524
0.0033737081 0.043858204 0.26089826
0.0041210293 0.043832764 0.26074693
0.0048736855 0.04386317 0.2609278
0.0056268801 0.043889668 0.26108542
0.006379866 0.043908488 0.26119739
0.0071318531 0.043917201 0.26124921
0.0078841131 0.043925773 0.26130021
0.0086365547 0.043933779 0.26134783
0.009397449 0.043980058 0.26162314
0.010179451 0.044110954 0.26240179
-0.053712506 0.04665539 0.27287331
-0.050181024 0.044233643 0.25870925
-0.049334042 0.044140987 0.25816733
-0.048592597 0.044141367 0.25816956
-0.047851142 0.044141751 0.2581718
-0.047112394 0.044144686 0.25818896
-0.046383977 0.044157546 0.25826418
-0.04565914 0.044174291 0.25836211
-0.044939071 0.044196278 0.25849071
-0.044219594 0.044219594 0.25862709
-0.043495513 0.044239026 0.25874072
-0.042746883 0.044233732 0.25870976
-0.041990332 0.044219907 0.2586289
-0.041235004 0.044206899 0.25855282
-0.040496625 0.044211913 0.25858214
-0.039758503 0.0442174 0.25861424
-0.039020281 0.044222984 0.25864691
-0.038281865 0.044228565 0.25867954
-0.037543267 0.044234149 0.2587122
-0.03680449 0.044239737 0.2587449
-0.036065515 0.044245321 0.25877756
-0.035326358 0.044250913 0.25881025
-0.034587458 0.044257067 0.25884625
-0.033848476 0.044263393 0.25888324
-0.033109281 0.044269715 0.25892022
-0.032369882 0.044276044 0.25895724
-0.031630266 0.044282373 0.25899425
-0.030890442 0.044288706 0.2590313
-0.030150406 0.044295039 0.25906834
-0.029410155 0.044301372 0.25910538
-0.028669696 0.044307712 0.25914246
-0.027929025 0.044314053 0.25917953
-0.027188208 0.044320501 0.25921726
-0.026447454 0.044327423 0.25925773
-0.025706468 0.044334341 0.25929821
-0.024965372 0.044341482 0.25933996
-0.024224175 0.044348873 0.2593832
-0.023482732 0.044356272 0.25942647
-0.022741042 0.044363674 0.25946975
-0.021999102 0.044371072 0.25951302
-0.021256916 0.044378474 0.25955632
-0.020514481 0.04438588 0.25959963
-0.019771799 0.044393286 0.25964296
-0.019028861 0.044400677 0.25968617
-0.018285604 0.044407897 0.2597284
-0.017542105 0.044415116 0.25977063
-0.016798459 0.044422593 0.25981435
-0.016054694 0.044430427 0.25986019
-0.015310887 0.044438917 0.25990984
-0.014566799 0.044447411 0.25995952
-0.013822425 0.044455908 0.2600092
-0.013077706 0.044464201 0.26005772
-0.012332704 0.044472478 0.26010612
-0.011587423 0.044480752 0.26015452
-0.010841865 0.044489034 0.26020294
-0.01009603 0.044497319 0.2602514
-0.0093499171 0.044505604 0.26029986
-0.0086035244 0.044513889 0.26034832
-0.0078568561 0.044522185 0.26039684
-0.0071099084 0.044530481 0.26044536
-0.0063626822 0.044538774 0.26049387
-0.0056151776 0.044547077 0.26054242
-0.0048673945 0.044555381 0.260591
-0.0041193138 0.044563483 0.26063839
-0.0033709568 0.044571541 0.2606855
-0.0026223294 0.044579603 0.26073265
-0.0018734309 0.044587657 0.26077977
-0.0011242619 0.044595722 0.26082695
-0.00037482189 0.044603806 0.26087421
0.00037489011 0.044611923 0.26092169
0.0011248749 0.044620041 0.26096916
0.0018751902 0.044629525 0.26102465
0.0026255357 0.044634108 0.26105145
0.0033736953 0.044607747 0.26089728
0.0041209413 0.044581093 0.26074138
0.0048740199 0.044616029 0.26094571
0.0056272661 0.044642981 0.26110333
0.0063794074 0.044655852 0.26117861
0.0071313395 0.044664707 0.26123041
0.007883572 0.044673573 0.26128227
0.0086365612 0.04468482 0.26134804
0.0093970597 0.044730008 0.26161233
0.010179792 0.044866491 0.26241058
-0.053511169 0.047261689 0.27185047
-0.050190359 0.044985432 0.25875738
-0.04933507 0.044883784 0.25817269
-0.048596423 0.044886775 0.25818989
-0.047858432 0.044890467 0.25821114
-0.047120325 0.044894166 0.25823241
-0.046394277 0.04490966 0.25832152
-0.045669258 0.044926669 0.25841936
-0.044941515 0.044941515 0.25850475
-0.04420973 0.04495275 0.25856939
-0.043484144 0.044970781 0.2586731
-0.042749621 0.044980034 0.25872633
-0.041993018 0.044965975 0.25864545
-0.041237373 0.044952452 0.25856766
-0.04049895 0.044957548 0.25859699
-0.039760359 0.044962648 0.25862631
-0.039022047 0.044968262 0.25865862
-0.038283605 0.044973943 0.25869128
-0.037544973 0.044979621 0.25872394
-0.036806159 0.044985306 0.25875664
-0.036067151 0.044990983 0.2587893
-0.03532796 0.044996668 0.25882199
-0.034588996 0.045002889 0.25885779
-0.033849984 0.045009319 0.25889477
-0.033110756 0.045015749 0.25893176
-0.032371324 0.045022186 0.25896877
-0.031631678 0.045028623 0.25900581
-0.030891817 0.04503506 0.25904283
-0.030151747 0.045041502 0.25907987
-0.029411469 0.045047946 0.25911695
-0.028670976 0.045054391 0.25915402
-0.027930271 0.045060836 0.2591911
-0.027189352 0.045067281 0.25922817
-0.026448321 0.045073897 0.25926623
-0.02570731 0.045080934 0.2593067
-0.024966169 0.045088157 0.25934824
-0.024224948 0.045095675 0.25939149
-0.023483479 0.045103192 0.25943473
-0.022741769 0.045110721 0.25947803
-0.021999804 0.045118243 0.25952131
-0.021257594 0.045125771 0.25956461
-0.02051509 0.045133196 0.25960732
-0.019772297 0.045140527 0.25964949
-0.019029265 0.045147866 0.25969169
-0.018285992 0.045155205 0.25973392
-0.017542476 0.045162544 0.25977612
-0.016798833 0.045170195 0.25982013
-0.016054999 0.045178019 0.25986513
-0.015310921 0.04518589 0.2599104
-0.01456683 0.045194525 0.25996009
-0.013822455 0.045203164 0.26000977
-0.013077795 0.045211807 0.26005948
-0.012332851 0.045220453 0.26010922
-0.011587621 0.0452291 0.26015896
-0.010842106 0.045237754 0.26020873
-0.010096266 0.045246229 0.26025748
-0.009350135 0.045254655 0.26030594
-0.0086037265 0.045263082 0.26035443
-0.0078570396 0.045271512 0.26040292
-0.0071100746 0.04527995 0.26045144
-0.0063628312 0.045288388 0.26049998
-0.0056153093 0.045296829 0.26054853
-0.0048675085 0.045305274 0.26059711
-0.0041194251 0.045313679 0.26064545
-0.003371048 0.045321871 0.26069257
-0.0026224002 0.045330063 0.26073968
-0.0018734817 0.045338258 0.26078683
-0.0011242924 0.045346458 0.26083401
-0.0003748319 0.045354661 0.26088119
0.00037489977 0.045362875 0.26092842
0.001124904 0.045371126 0.2609759
0.0018752088 0.045380052 0.26102725
0.0026255259 0.04538409 0.26105046
0.0033736778 0.045357227 0.26089594
0.0041209091 0.045329999 0.26073933
0.0048737288 0.045363169 0.26093012
0.0056273676 0.0453941 0.26110804
0.0063790614 0.045403909 0.26116446
0.0071316864 0.045417581 0.2612431
0.007884765 0.045431264 0.26132181
0.0086377384 0.045442015 0.26138365
0.0093966713 0.04547989 0.26160151
0.010181231 0.045626998 0.26244769
-0.053299621 0.047852945 0.27077574
-0.050192747 0.045731172 0.25876969
-0.04933963 0.045629885 0.25819656
-0.048601154 0.045633145 0.25821501
-0.04786431 0.045638062 0.25824285
-0.047127768 0.04564343 0.25827321
-0.046399698 0.045657303 0.25835171
-0.045671485 0.045671485 0.25843197
-0.044942822 0.045685679 0.25851229
-0.044215325 0.045701556 0.25860211
-0.043476477 0.045706041 0.2586275
-0.042747416 0.045721147 0.25871298
-0.0419957 0.045712136 0.25866199
-0.041239738 0.045698088 0.2585825
-0.040501274 0.045703273 0.25861183
-0.039762642 0.045708459 0.25864118
-0.039023846 0.045713648 0.25867054
-0.038285341 0.045719389 0.25870302
-0.037546676 0.045725159 0.25873569
-0.036807824 0.045730934 0.25876835
-0.03606879 0.045736711 0.25880104
-0.035329565 0.045742489 0.25883374
-0.034590535 0.04574877 0.25886929
-0.033851493 0.045755312 0.2589063
-0.033112235 0.045761853 0.25894332
-0.032372769 0.045768395 0.25898033
-0.031633087 0.045774937 0.25901735
-0.030893197 0.045781486 0.25905439
-0.030153094 0.045788031 0.25909144
-0.02941278 0.045794584 0.25912851
-0.028672252 0.045801129 0.25916556
-0.027931517 0.045807686 0.25920266
-0.027190564 0.045814238 0.25923973
-0.026449403 0.045820795 0.25927684
-0.025708154 0.045827579 0.25931522
-0.024966964 0.045834873 0.2593565
-0.024225723 0.045842521 0.25939977
-0.02348423 0.045850165 0.25944301
-0.022742491 0.045857809 0.25948629
-0.022000412 0.045865264 0.25952846
-0.021258088 0.045872714 0.25957063
-0.020515522 0.045880169 0.2596128
-0.019772718 0.045887627 0.259655
-0.019029669 0.045895085 0.2596972
-0.018286379 0.045902543 0.2597394
-0.017542848 0.045910005 0.25978163
-0.016799206 0.045917831 0.25982592
-0.016055355 0.045925785 0.25987092
-0.015311248 0.045933742 0.25991595
-0.014566881 0.045941699 0.25996098
-0.013822485 0.045950424 0.26001033
-0.013077823 0.045959208 0.26006004
-0.012332877 0.045968 0.26010978
-0.011587646 0.045976788 0.26015952
-0.01084213 0.045985583 0.26020929
-0.010096328 0.045994386 0.26025909
-0.0093502412 0.046003185 0.26030889
-0.0086038681 0.046011992 0.26035872
-0.00785721 0.046020802 0.26040858
-0.0071102404 0.046029452 0.26045752
-0.0063629798 0.046038032 0.26050606
-0.0056154402 0.046046611 0.26055461
-0.0048676222 0.046055194 0.26060319
-0.0041195257 0.046063785 0.2606518
-0.0033711391 0.046072233 0.2606996
-0.0026224712 0.046080567 0.26074675
-0.0018735324 0.046088897 0.26079389
-0.0011243226 0.04609723 0.26084104
-0.00037484206 0.046105575 0.26088825
0.00037490984 0.046113912 0.26093543
0.0011249331 0.046122257 0.26098266
0.0018752299 0.046130653 0.26103017
0.0026255164 0.046134073 0.26104951
0.0033736513 0.046106569 0.26089388
0.0041208765 0.046078891 0.26073727
0.004873333 0.046109229 0.26090893
0.0056275656 0.046146039 0.26111722
0.0063803229 0.046163514 0.2612161
0.0071330969 0.046177417 0.26129478
0.0078859953 0.046189401 0.26136258
0.0086389175 0.046199426 0.26141933
0.009396283 0.046229713 0.26159069
0.010185136 0.046398956 0.26254836
-0.053144749 0.048489735 0.26998895
-0.050191153 0.046473291 0.25876147
-0.049348798 0.046380449 0.25824454
-0.048603643 0.046377521 0.25822824
-0.047866762 0.04638252 0.25825608
-0.047131989 0.046389755 0.25829634
-0.046401054 0.046401054 0.25835925
-0.045672819 0.046415467 0.25843951
-0.044945005 0.046430789 0.25852484
-0.044220921 0.046450548 0.25863484
-0.04348198 0.046455108 0.25866023
-0.042742893 0.046459667 0.25868562
-0.041997343 0.046457238 0.25867209
-0.041242108 0.046443813 0.25859734
-0.040503602 0.046449084 0.2586267
-0.039764926 0.046454351 0.25865602
-0.039026085 0.046459623 0.25868538
-0.038287073 0.046464898 0.25871474
-0.037548382 0.046470769 0.25874743
-0.036809493 0.046476636 0.25878009
-0.036070425 0.046482507 0.25881279
-0.035331167 0.046488378 0.25884548
-0.034592077 0.046494726 0.25888082
-0.033852998 0.046501372 0.25891784
-0.033113711 0.046508022 0.25895485
-0.032374211 0.046514668 0.25899187
-0.031634495 0.046521317 0.25902888
-0.030894572 0.046527971 0.25906593
-0.030154439 0.046534628 0.259103
-0.029414089 0.046541281 0.25914004
-0.028673531 0.046547938 0.25917712
-0.027932763 0.046554603 0.25921422
-0.027191777 0.046561264 0.2592513
-0.026450582 0.046567924 0.2592884
-0.025709176 0.046574596 0.25932553
-0.024967762 0.046581645 0.25936478
-0.024226449 0.046589326 0.25940755
-0.023484834 0.046596892 0.25944969
-0.022742976 0.046604458 0.2594918
-0.022000879 0.046612032 0.25953397
-0.021258537 0.046619598 0.25957611
-0.020515958 0.046627179 0.25961831
-0.019773135 0.046634752 0.25966048
-0.019030072 0.04664233 0.25970268
-0.018286766 0.046649914 0.25974491
-0.017543219 0.046657499 0.25978714
-0.01679958 0.046665501 0.2598317
-0.016055712 0.046673585 0.2598767
-0.015311589 0.046681672 0.25992173
-0.014567207 0.046689764 0.25996679
-0.013822566 0.046697859 0.26001185
-0.013077852 0.046706613 0.26006061
-0.012332903 0.046715543 0.26011032
-0.011587671 0.04672448 0.26016009
-0.010842153 0.04673342 0.26020986
-0.010096351 0.046742365 0.26025966
-0.0093502617 0.046751305 0.26030946
-0.0086038867 0.046760257 0.26035929
-0.0078572268 0.046769205 0.26040912
-0.0071102814 0.046778165 0.26045901
-0.0063630482 0.04678712 0.26050887
-0.0056155301 0.046796087 0.26055878
-0.0048677251 0.04680505 0.2606087
-0.0041196216 0.046813883 0.26065788
-0.003371228 0.046822611 0.26070648
-0.002622542 0.046831109 0.26075378
-0.001873583 0.046839576 0.26080093
-0.0011243531 0.046848048 0.2608481
-0.00037485216 0.046856519 0.26089528
0.00037492 0.046864998 0.26094249
0.0011249636 0.046873484 0.26098973
0.0018752787 0.046881966 0.26103696
0.0026255066 0.046884049 0.26104856
0.0033736248 0.0468559 0.26089182
0.004120924 0.046828683 0.26074028
0.0048737754 0.046863228 0.26093262
0.0056274403 0.046895336 0.26111141
0.0063813543 0.046921723 0.26125833
0.0071343728 0.046936661 0.26134151
0.007887071 0.04694685 0.26139823
0.0086400956 0.046957038 0.26145497
0.0093958946 0.046979472 0.26157987
0.010189605 0.0471741 0.26266354
-0.05300476 0.0491358 0.26927778
-0.050189551 0.047215354 0.25875321
-0.049357973 0.0471313 0.25829256
-0.048606139 0.047121983 0.2582415
-0.047869392 0.047127232 0.25827026
-0.047136214 0.047136214 0.2583195
-0.046402756 0.047145199 0.25836873
-0.045674153 0.047159489 0.25844705
-0.044948656 0.047177516 0.25854585
-0.044226516 0.047199726 0.25866756
-0.043487482 0.04720436 0.25869295
-0.042748306 0.047208998 0.25871837
-0.041998979 0.04720239 0.25868216
-0.041244473 0.047189623 0.25861219
-0.040505927 0.04719498 0.25864154
-0.039767213 0.047200337 0.2586709
-0.039028328 0.04720569 0.25870025
-0.038289275 0.047211047 0.25872961
-0.037550084 0.047216441 0.25875917
-0.036811166 0.047222402 0.25879183
-0.03607206 0.04722837 0.25882453
-0.035332769 0.047234334 0.25885722
-0.034593616 0.047240745 0.25889236
-0.033854507 0.047247499 0.25892937
-0.033115186 0.047254253 0.25896639
-0.032375652 0.047261007 0.2590034
-0.031635907 0.047267769 0.25904045
-0.03089595 0.047274526 0.25907749
-0.030155782 0.047281288 0.25911453
-0.029415403 0.047288053 0.25915161
-0.028674811 0.047294818 0.25918868
-0.027934009 0.047301587 0.25922579
-0.027192989 0.047308352 0.25926286
-0.026451737 0.04731508 0.25929973
-0.025710138 0.047321558 0.25933522
-0.024968443 0.047328245 0.25937188
-0.024226962 0.047335755 0.25941303
-0.023485331 0.047343444 0.25945517
-0.022743458 0.047351133 0.25949731
-0.022001343 0.047358822 0.25953946
-0.021258989 0.047366519 0.25958163
-0.020516392 0.047374215 0.2596238
-0.019773554 0.047381915 0.259666
-0.019030474 0.047389615 0.2597082
-0.018287156 0.047397319 0.25975043
-0.017543592 0.047405027 0.25979266
-0.016799955 0.047413204 0.25983748
-0.01605607 0.047421414 0.25988248
-0.015311928 0.047429632 0.25992751
-0.014567531 0.047437854 0.25997257
-0.013822873 0.04744608 0.26001763
-0.013077958 0.047454305 0.26006272
-0.01233293 0.047463093 0.26011088
-0.011587696 0.047472175 0.26016065
-0.010842177 0.047481257 0.26021042
-0.010096371 0.04749034 0.26026019
-0.0093502821 0.047499429 0.26031002
-0.0086039063 0.047508523 0.26035985
-0.0078572435 0.047517616 0.26040968
-0.0071102958 0.047526713 0.26045954
-0.0063630622 0.047535818 0.26050943
-0.0056155426 0.047544926 0.26055935
-0.0048677358 0.047554035 0.26060927
-0.004119643 0.047563151 0.26065922
-0.0033712613 0.04757224 0.26070905
-0.0026225683 0.047580883 0.2607564
-0.0018736025 0.047589503 0.26080364
-0.0011243653 0.047598127 0.26085091
-0.00037485635 0.047606759 0.2608982
0.0003749243 0.047615387 0.2609455
0.0011249768 0.047624018 0.2609928
0.0018753014 0.047632653 0.26104012
0.0026256824 0.047637381 0.26106602
0.003374154 0.047613062 0.26093274
0.0041217422 0.047587387 0.26079205
0.0048743063 0.047618221 0.26096103
0.0056273625 0.047645003 0.2611078
0.0063808062 0.047668375 0.26123589
0.007134676 0.047689676 0.26135263
0.007887776 0.047702268 0.26142162
0.0086412737 0.047714863 0.26149064
0.0093961274 0.047732327 0.26158637
-0.052865505 0.049778469 0.26857033
-0.050192285 0.047961518 0.25876731
-0.049367148 0.047882423 0.25834057
-0.048608631 0.047866516 0.25825474
-0.04787368 0.04787368 0.25829339
-0.047140442 0.04788281 0.25834265
-0.046406917 0.047891941 0.25839192
-0.045675483 0.047903556 0.25845459
-0.044952311 0.047924366 0.25856686
-0.044232111 0.047949094 0.25870028
-0.043492988 0.047953807 0.2587257
-0.042750951 0.047955412 0.25873438
-0.042000614 0.047947604 0.25869223
-0.041246846 0.047935523 0.25862706
-0.040508252 0.047940958 0.25865638
-0.039769493 0.047946397 0.25868574
-0.039030571 0.047951844 0.25871512
-0.038291477 0.047957286 0.25874448
-0.037552215 0.047962733 0.25877386
-0.036812834 0.047968239 0.25880358
-0.036073696 0.0479743 0.25883627
-0.035334375 0.047980364 0.25886899
-0.034595158 0.047986832 0.25890389
-0.033856016 0.047993694 0.25894091
-0.033116661 0.048000552 0.25897792
-0.032377098 0.048007421 0.25901496
-0.031637315 0.048014279 0.25905198
-0.03089733 0.048021153 0.25908905
-0.030157126 0.048028018 0.2591261
-0.029416716 0.048034888 0.25916317
-0.028676083 0.04804175 0.25920019
-0.027935071 0.048048321 0.25923565
-0.027193855 0.048054896 0.25927112
-0.026452439 0.048061475 0.25930661
-0.025710823 0.048068058 0.25934213
-0.0249692 0.048075024 0.25937971
-0.024227476 0.048082221 0.25941855
-0.023485826 0.048090026 0.25946066
-0.022743938 0.048097838 0.2595028
-0.022001809 0.04810565 0.25954494
-0.021259438 0.048113465 0.25958711
-0.020516828 0.048121285 0.25962931
-0.019773971 0.0481291 0.25967148
-0.019030878 0.048136931 0.25971371
-0.018287541 0.04814475 0.25975591
-0.01754397 0.048152599 0.25979826
-0.016800329 0.04816094 0.25984326
-0.016056428 0.048169281 0.25988826
-0.015312269 0.04817763 0.25993329
-0.014567855 0.048185978 0.25997835
-0.01382318 0.04819433 0.26002342
-0.013078249 0.04820269 0.26006851
-0.012333059 0.048211046 0.2601136
-0.01158772 0.048219867 0.26016119
-0.010842199 0.048229095 0.26021096
-0.010096394 0.048238322 0.26026076
-0.0093503008 0.048247553 0.26031056
-0.008603924 0.048256788 0.26036039
-0.0078572603 0.048266031 0.26041025
-0.0071103112 0.04827527 0.26046011
-0.0063630762 0.048284519 0.26051
-0.0056155538 0.048293766 0.26055989
-0.0048677465 0.048303023 0.26060984
-0.0041196514 0.048312277 0.26065975
-0.0033712392 0.048321098 0.26070735
-0.0026225515 0.048329879 0.26075473
-0.0018735911 0.048338652 0.26080206
-0.0011243584 0.04834741 0.26084933
-0.00037485405 0.048356172 0.26089659
0.000374922 0.048364937 0.26094389
0.00112497 0.04837371 0.26099122
0.0018752899 0.048382483 0.26103854
0.0026256349 0.0483867 0.26106131
0.0033748241 0.048372477 0.26098457
0.0041225608 0.048346397 0.26084384
0.0048748367 0.048373379 0.26098943
0.0056272843 0.048394646 0.26110417
0.0063803936 0.048415929 0.26121899
0.0071342052 0.048437499 0.26133537
0.0078872554 0.048450287 0.26140437
0.0086407596 0.048463393 0.26147509
0.0093972264 0.048489686 0.26161695
-0.05255165 0.050250117 0.26697585
-0.050206631 0.04871903 0.25884128
-0.049376324 0.048633821 0.25838858
-0.048611119 0.048611119 0.25826797
-0.047877971 0.048620265 0.25831655
-0.047144666 0.048629537 0.25836581
-0.046411078 0.048638809 0.25841507
-0.045677211 0.048648085 0.25846437
-0.044955969 0.048671339 0.2585879
-0.044235867 0.048696626 0.25872225
-0.043498486 0.048703436 0.25875843
-0.042751629 0.048699681 0.25873849
-0.04200225 0.048692871 0.25870231
-0.041249212 0.048681501 0.2586419
-0.04051058 0.048687026 0.25867125
-0.03977178 0.048692554 0.25870061
-0.039032809 0.048698079 0.25872996
-0.038293678 0.048703607 0.25875935
-0.037554376 0.048709139 0.25878873
-0.036814902 0.048714671 0.25881812
-0.036075335 0.048720296 0.25884801
-0.03533598 0.048726454 0.25888073
-0.0345967 0.048732985 0.25891542
-0.033857524 0.048739951 0.25895244
-0.033118136 0.048746917 0.25898945
-0.032378539 0.048753891 0.2590265
-0.031638727 0.048760865 0.25906354
-0.030898705 0.048767835 0.25910059
-0.030158296 0.048774529 0.25913614
-0.029417673 0.048781205 0.25917161
-0.028676845 0.048787877 0.25920707
-0.027935812 0.048794553 0.25924253
-0.027194582 0.048801236 0.25927803
-0.026453145 0.048807915 0.25931352
-0.025711536 0.048814658 0.25934935
-0.024969956 0.048821855 0.25938758
-0.024228157 0.048829056 0.25942585
-0.023486324 0.048836641 0.25946614
-0.022744419 0.048844572 0.25950828
-0.022002276 0.048852511 0.25955045
-0.021259889 0.048860446 0.25959262
-0.02051726 0.048868384 0.25963479
-0.019774392 0.048876327 0.25967699
-0.019031281 0.048884269 0.25971919
-0.018287929 0.048892219 0.25976142
-0.017544361 0.048900239 0.25980404
-0.016800702 0.04890871 0.25984904
-0.016056783 0.048917182 0.25989404
-0.015312612 0.048925661 0.2599391
-0.014568178 0.048934139 0.25998414
-0.01382349 0.048942626 0.26002923
-0.01307854 0.048951104 0.26007429
-0.012333334 0.048959598 0.26011941
-0.011587868 0.048968092 0.26016453
-0.010842223 0.048976935 0.26021153
-0.010096415 0.048986312 0.26026133
-0.0093503213 0.048995685 0.26031113
-0.0086039426 0.049005061 0.26036096
-0.007857278 0.049014445 0.26041082
-0.0071103266 0.049023833 0.26046067
-0.0063630897 0.049033221 0.26051056
-0.0056155664 0.049042612 0.26056045
-0.0048677563 0.049052007 0.26061037
-0.0041196272 0.049061015 0.26065823
-0.0033712168 0.049069934 0.26070562
-0.0026225343 0.049078856 0.26075301
-0.0018735793 0.049087778 0.26080042
-0.0011243516 0.049096685 0.26084775
-0.00037485178 0.049105585 0.26089501
0.00037491973 0.049114484 0.26094231
0.001124963 0.049123388 0.26098961
0.0018752784 0.049132295 0.26103693
0.0026255876 0.049135998 0.2610566
0.0033750648 0.049125943 0.2610032
0.0041233795 0.0491057 0.26089564
0.0048747696 0.04912268 0.26098585
0.0056272061 0.049144264 0.26110053
0.0063803047 0.049165878 0.26121536
0.0071337339 0.04918522 0.26131812
0.0078868978 0.04919922 0.2613925
0.0086405296 0.04921345 0.26146811
0.0093984017 0.049247622 0.26164967
-0.052424766 0.050894115 0.26633126
-0.050216172 0.049472228 0.25889045
-0.049378134 0.049378134 0.25839806
-0.048614319 0.04935652 0.25828496
-0.047880773 0.049365446 0.25833166
-0.047147214 0.049374644 0.25837979
-0.046413396 0.049383853 0.25842798
-0.045679297 0.049393062 0.25847617
-0.044958901 0.049417634 0.25860476
-0.044239461 0.049444105 0.25874329
-0.043500632 0.049449436 0.25877118
-0.042752311 0.049443975 0.2587426
-0.042003889 0.049438205 0.25871241
-0.041251585 0.049427573 0.25865677
-0.040512908 0.049433183 0.25868613
-0.039774068 0.049438793 0.25871548
-0.039035056 0.049444403 0.25874484
-0.038295876 0.049450018 0.25877422
-0.037556533 0.049455632 0.25880361
-0.036817018 0.049461249 0.25883299
-0.036077335 0.049466863 0.25886238
-0.035337582 0.049472615 0.25889248
-0.034598246 0.049479209 0.25892699
-0.033859033 0.049486276 0.25896397
-0.033119615 0.049493358 0.25900102
-0.032379817 0.049500179 0.25903672
-0.031639781 0.049506951 0.25907215
-0.030899541 0.04951372 0.25910759
-0.030159101 0.0495205 0.25914305
-0.029418454 0.049527269 0.25917849
-0.028677609 0.049534053 0.25921398
-0.027936557 0.049540829 0.25924945
-0.027195306 0.049547613 0.25928494
-0.026453851 0.049554396 0.25932044
-0.025712317 0.049561422 0.25935721
-0.024970714 0.049568731 0.25939545
-0.024228889 0.049576037 0.25943369
-0.023486849 0.049583349 0.25947195
-0.022744903 0.049591344 0.2595138
-0.02200274 0.049599398 0.25955594
-0.021260338 0.049607456 0.25959811
-0.020517696 0.049615521 0.25964031
-0.019774811 0.049623583 0.25968251
-0.019031685 0.049631648 0.25972471
-0.018288318 0.049639717 0.25976694
-0.017544752 0.049647912 0.25980982
-0.016801076 0.049656514 0.25985482
-0.016057143 0.049665119 0.25989985
-0.015312952 0.049673725 0.25994489
-0.014568504 0.049682334 0.25998995
-0.013823797 0.049690943 0.26003501
-0.013078832 0.04969956 0.2600801
-0.012333608 0.049708176 0.26012519
-0.011588126 0.0497168 0.26017031
-0.010842387 0.049725428 0.26021546
-0.010096437 0.049734302 0.26026189
-0.0093503417 0.049743816 0.26031169
-0.0086039612 0.049753338 0.26036152
-0.0078572938 0.049762864 0.26041135
-0.0071103424 0.049772397 0.26046124
-0.0063631036 0.04978193 0.26051113
-0.0056155785 0.049791463 0.26056102
-0.0048677344 0.049800664 0.26060918
-0.0041196006 0.049809717 0.26065654
-0.0033711949 0.049818769 0.26070392
-0.0026225171 0.049827825 0.26075131
-0.0018735671 0.049836885 0.26079872
-0.0011243446 0.049845945 0.26084614
-0.00037484951 0.049854986 0.26089343
0.00037491741 0.049864016 0.2609407
0.0011249563 0.049873061 0.26098803
0.0018752671 0.049882103 0.26103535
0.0026255399 0.049885258 0.26105186
0.0033750036 0.049875055 0.26099846
0.0041241609 0.049864855 0.26094508
0.0048747021 0.049871951 0.26098222
0.0056271283 0.049893871 0.26109692
0.0063804621 0.049917731 0.2612218
0.0071336553 0.049935587 0.26131523
0.0078866873 0.04994902 0.26138553
0.0086402986 0.049963463 0.26146111
0.009399577 0.050005749 0.26168239
-0.052317418 0.051553659 0.2657859
-0.050215159 0.050215159 0.25888523
-0.049375601 0.050118089 0.25838479
-0.048617262 0.050101761 0.2583006
-0.047882654 0.050109755 0.25834182
-0.047149077 0.050119095 0.25838998
-0.046415225 0.050128445 0.25843817
-0.045681097 0.050137792 0.25848636
-0.044959765 0.050161723 0.25860974
-0.044241592 0.050190043 0.25875574
-0.043501325 0.050193835 0.25877529
-0.042752989 0.050188292 0.25874671
-0.042004824 0.050182752 0.25871816
-0.04125395 0.050173722 0.25867161
-0.040515233 0.050179418 0.25870097
-0.039776348 0.05018511 0.25873032
-0.039037298 0.05019081 0.25875971
-0.038298078 0.05019651 0.25878909
-0.03755869 0.05020221 0.25881848
-0.036819134 0.050207909 0.25884786
-0.03607941 0.050213609 0.25887725
-0.035339519 0.050219316 0.25890666
-0.034599636 0.050225276 0.25893739
-0.033860184 0.050232142 0.25897279
-0.033120532 0.050239012 0.2590082
-0.032380681 0.050245885 0.25904363
-0.031640623 0.050252751 0.25907904
-0.030900365 0.050259631 0.2591145
-0.030159902 0.050266504 0.25914994
-0.029419238 0.050273381 0.2591854
-0.028678371 0.050280262 0.25922087
-0.027937302 0.050287146 0.25925636
-0.027196029 0.050294027 0.25929183
-0.026454555 0.050300915 0.25932735
-0.025713094 0.050308228 0.25936505
-0.02497147 0.050315652 0.25940332
-0.024229625 0.050323065 0.25944155
-0.023487562 0.05033049 0.25947982
-0.022745384 0.050338142 0.25951928
-0.022003207 0.050346322 0.25956145
-0.021260791 0.050354503 0.25960362
-0.02051813 0.05036268 0.25964579
-0.019775229 0.050370868 0.25968799
-0.019032089 0.05037906 0.25973022
-0.018288705 0.050387248 0.25977245
-0.017545141 0.050395619 0.2598156
-0.01680145 0.050404347 0.25986061
-0.016057501 0.050413083 0.25990564
-0.015313293 0.050421819 0.25995067
-0.014568828 0.050430559 0.25999573
-0.013824104 0.050439298 0.26004079
-0.013079123 0.050448045 0.26008588
-0.012333884 0.050456796 0.260131
-0.011588385 0.05046555 0.26017612
-0.010842628 0.050474301 0.26022124
-0.010096611 0.050483059 0.26026639
-0.0093503622 0.050491955 0.26031226
-0.0086039798 0.050501619 0.26036209
-0.0078573115 0.050511286 0.26041192
-0.0071103568 0.050520957 0.26046178
-0.0063631167 0.050530635 0.26051167
-0.0056155594 0.050540034 0.26056013
-0.0048677023 0.050549217 0.26060748
-0.0041195736 0.050558403 0.26065484
-0.0033711726 0.05056759 0.26070219
-0.0026225001 0.050576787 0.26074961
-0.0018735547 0.050585978 0.26079699
-0.0011243373 0.050595179 0.26084444
-0.00037484721 0.050604373 0.26089182
0.00037491514 0.050613545 0.26093912
0.0011249494 0.050622724 0.26098645
0.0018752557 0.050631903 0.26103377
0.0026254926 0.0506345 0.26104715
0.0033749428 0.05062414 0.26099375
0.0041240864 0.050613787 0.26094037
0.0048749046 0.050624009 0.26099306
0.0056275926 0.050648332 0.26111847
0.006381005 0.050672688 0.26124403
0.0071338895 0.050688162 0.26132381
0.0078867041 0.050700236 0.26138607
0.0086400677 0.050713442 0.26145414
0.0094007533 0.050764069 0.26171514
-0.056669809 0.055854417 0.28375477
-0.052229453 0.052229453 0.26533902
-0.050214142 0.050958056 0.25887999
-0.049374804 0.05085976 0.25838062
-0.048620202 0.050847083 0.25831622
-0.047885504 0.050855149 0.2583572
-0.047150936 0.050863609 0.25840017
-0.04641705 0.050873086 0.25844833
-0.0456829 0.050882578 0.25849655
-0.044960637 0.050905846 0.25861475
-0.044243354 0.05093563 0.25876606
-0.043502275 0.050938562 0.25878096
-0.042753674 0.050932635 0.25875086
-0.042005491 0.050927009 0.25872228
-0.041256323 0.050919965 0.25868648
-0.040517561 0.050925743 0.25871584
-0.039778635 0.050931521 0.25874519
-0.039039541 0.050937306 0.25877458
-0.03830028 0.050943092 0.25880396
-0.03756085 0.050948873 0.25883335
-0.03682125 0.050954659 0.25886273
-0.036081262 0.050960131 0.25889054
-0.03534089 0.050965283 0.25891671
-0.034600645 0.050970845 0.25894496
-0.033861086 0.050977677 0.25897968
-0.033121414 0.050984647 0.25901508
-0.032381542 0.050991621 0.25905052
-0.031641465 0.050998598 0.25908595
-0.030901186 0.051005572 0.25912139
-0.030160706 0.051012553 0.25915685
-0.02942002 0.051019527 0.25919229
-0.028679136 0.051026516 0.25922778
-0.027938046 0.051033497 0.25926325
-0.027196754 0.051040482 0.25929874
-0.026455304 0.051047556 0.25933468
-0.025713874 0.051055085 0.25937292
-0.024972225 0.05106261 0.25941116
-0.024230359 0.051070143 0.25944942
-0.023488274 0.051077675 0.25948769
-0.022745971 0.051085211 0.25952598
-0.022003673 0.051093273 0.25956693
-0.021261239 0.051101573 0.2596091
-0.020518566 0.05110988 0.2596513
-0.01977565 0.051118188 0.2596935
-0.019032491 0.051126495 0.2597357
-0.018289091 0.051134806 0.25977793
-0.017545532 0.051143359 0.25982139
-0.016801823 0.051152218 0.25986639
-0.016057858 0.051161081 0.25991142
-0.015313634 0.051169947 0.25995645
-0.014569152 0.051178817 0.26000151
-0.013824413 0.05118769 0.2600466
-0.013079415 0.051196568 0.26009169
-0.012334158 0.051205441 0.26013678
-0.011588642 0.051214326 0.2601819
-0.01084287 0.051223211 0.26022705
-0.010096837 0.0512321 0.2602722
-0.0093505457 0.051240992 0.26031739
-0.0086039975 0.051249899 0.26036263
-0.0078573283 0.051259711 0.26041248
-0.0071103722 0.051269528 0.26046234
-0.0063631032 0.051279124 0.2605111
-0.0056155226 0.051288441 0.26055843
-0.0048676701 0.051297754 0.26060575
-0.0041195462 0.051307078 0.26065311
-0.0033711507 0.051316403 0.26070049
-0.0026224826 0.051325731 0.26074788
-0.0018735426 0.051335067 0.2607953
-0.0011243299 0.051344398 0.26084271
-0.00037484479 0.051353738 0.26089016
0.0003749129 0.051363066 0.26093754
0.0011249426 0.051372375 0.26098484
0.0018752442 0.051381689 0.26103216
0.0026254451 0.051383715 0.26104245
0.0033748818 0.051373202 0.26098904
0.0041241189 0.051364027 0.26094243
0.0048751724 0.051376816 0.2610074
0.0056280713 0.051403049 0.26114067
0.0063815475 0.051427763 0.26126623
0.0071341228 0.051440783 0.26133236
0.007886963 0.051453043 0.26139465
0.0086401599 0.051465303 0.26145694
0.0094019296 0.051522575 0.2617479
-0.056209333 0.056209333 0.28144908
-0.052141786 0.052902982 0.26489365
-0.050196562 0.051683869 0.25878936
-0.049374592 0.051602017 0.25837952
-0.048623141 0.051592495 0.25833184
-0.047888406 0.051600683 0.25837284
-0.047153424 0.051608868 0.25841382
-0.046418883 0.051617797 0.25845852
-0.045684703 0.051627427 0.25850675
-0.044961501 0.051649991 0.25861973
-0.044245798 0.051682066 0.25878033
-0.043504421 0.051684737 0.25879371
-0.042754352 0.051677 0.25875497
-0.042006157 0.051671293 0.25872639
-0.041258689 0.051666286 0.25870132
-0.040519893 0.051672157 0.25873071
-0.039780919 0.051678017 0.25876006
-0.039041784 0.051683888 0.25878945
-0.038302481 0.051689755 0.25881884
-0.037562825 0.051695373 0.25884697
-0.036822725 0.051700592 0.25887311
-0.036082473 0.051705815 0.25889924
-0.035342071 0.051711034 0.25892538
-0.034601867 0.051716771 0.25895411
-0.033861987 0.051723253 0.25898656
-0.033122294 0.051730324 0.25902197
-0.032382403 0.051737402 0.2590574
-0.031642307 0.051744476 0.25909284
-0.030902008 0.051751554 0.25912827
-0.030161507 0.051758636 0.25916374
-0.029420804 0.051765721 0.2591992
-0.028679898 0.051772803 0.25923467
-0.027938791 0.051779892 0.25927016
-0.027197478 0.051786982 0.25930566
-0.026456106 0.05179435 0.25934255
-0.025714654 0.051801983 0.25938079
-0.024972983 0.05180962 0.25941902
-0.024231095 0.051817264 0.25945729
-0.023488985 0.051824905 0.25949556
-0.02274666 0.051832553 0.25953385
-0.022004141 0.051840261 0.25957245
-0.02126169 0.051848684 0.25961462
-0.020519 0.051857106 0.25965679
-0.019776069 0.05186554 0.25969902
-0.019032894 0.051873967 0.25974122
-0.01828948 0.051882401 0.25978345
-0.017545924 0.051891133 0.25982717
-0.016802197 0.051900119 0.25987217
-0.016058216 0.051909115 0.2599172
-0.015313974 0.051918108 0.25996223
-0.014569476 0.051927108 0.26000729
-0.013824721 0.051936112 0.26005238
-0.013079706 0.051945116 0.26009747
-0.012334433 0.051954128 0.26014259
-0.011588901 0.051963139 0.26018772
-0.01084311 0.051972151 0.26023284
-0.010097062 0.051981173 0.26027802
-0.0093507534 0.051990192 0.26032317
-0.0086041875 0.051999219 0.26036838
-0.0078573609 0.052008245 0.26041356
-0.0071103647 0.052017935 0.26046208
-0.0063630608 0.052027378 0.26050937
-0.0056154854 0.052036829 0.2605567
-0.0048676385 0.052046288 0.26060405
-0.0041195196 0.052055746 0.26065141
-0.0033711283 0.052065205 0.26069877
-0.0026224656 0.052074675 0.26074618
-0.0018735301 0.052084137 0.26079357
-0.0011243225 0.052093614 0.26084101
-0.00037484235 0.052103087 0.26088846
0.00037491054 0.052112564 0.2609359
0.0011249357 0.052122019 0.26098326
0.0018752328 0.052131474 0.26103058
0.0026253979 0.052132901 0.26103774
0.003374821 0.052122235 0.26098433
0.0041242619 0.052115675 0.26095149
0.0048753945 0.052129216 0.26101929
0.0056283935 0.052156448 0.26115564
0.0063818526 0.052181028 0.26127872
0.0071342206 0.052192457 0.26133594
0.007886841 0.05220338 0.26139063
0.008639778 0.052214313 0.26144537
0.0094024502 0.052277621 0.26176238
-0.055862062 0.05666583 0.27971023
-0.05205442 0.053574257 0.26444981
-0.050186954 0.052417487 0.25873983
-0.049374387 0.052344274 0.25837845
-0.048626088 0.052338 0.25834748
-0.0478913 0.052346304 0.25838846
-0.047156282 0.052354611 0.25842947
-0.046421029 0.052362919 0.25847048
-0.045686502 0.052372333 0.25851694
-0.044962369 0.052394163 0.2586247
-0.044248242 0.052428588 0.25879464
-0.04350657 0.052430991 0.2588065
-0.04275585 0.052422389 0.25876403
-0.042006824 0.052415598 0.2587305
-0.041261062 0.0524127 0.2587162
-0.040522214 0.052418645 0.25874555
-0.039783206 0.052424598 0.25877494
-0.039043888 0.052430365 0.2588034
-0.038304061 0.052435655 0.2588295
-0.037564084 0.052440949 0.25885564
-0.036823958 0.052446242 0.25888178
-0.036083683 0.05245154 0.25890791
-0.035343256 0.052456833 0.25893405
-0.034603085 0.052462745 0.25896323
-0.033862926 0.052468926 0.25899374
-0.033123177 0.052476045 0.25902888
-0.032383263 0.05248322 0.25906429
-0.031643149 0.052490398 0.25909972
-0.030902831 0.052497581 0.25913519
-0.030162308 0.052504759 0.25917062
-0.029421587 0.052511945 0.25920609
-0.028680664 0.052519135 0.25924158
-0.027939536 0.052526325 0.25927708
-0.027198205 0.052533519 0.25931257
-0.026456906 0.052541178 0.25935039
-0.025715431 0.052548926 0.25938863
-0.024973741 0.052556679 0.25942689
-0.024231829 0.052564431 0.25946516
-0.023489699 0.052572183 0.25950342
-0.022747351 0.052579939 0.25954172
-0.022004781 0.052587699 0.25958002
-0.021262139 0.05259582 0.2596201
-0.020519434 0.05260437 0.2596623
-0.019776486 0.052612916 0.2597045
-0.019033298 0.052621473 0.25974673
-0.018289868 0.05263003 0.25978896
-0.017546313 0.052638941 0.25983295
-0.016802572 0.052648056 0.25987795
-0.016058572 0.05265718 0.25992298
-0.015314316 0.052666306 0.25996804
-0.014569801 0.052675437 0.2600131
-0.013825028 0.052684564 0.26005816
-0.013079998 0.052693706 0.26010329
-0.012334707 0.05270284 0.26014838
-0.011589159 0.052711982 0.2601935
-0.010843352 0.052721128 0.26023865
-0.010097287 0.052730277 0.2602838
-0.0093509629 0.05273943 0.26032898
-0.0086043784 0.052748583 0.26037416
-0.0078575322 0.052757718 0.26041925
-0.0071104583 0.052767087 0.2604655
-0.0063631232 0.052776493 0.26051193
-0.0056154872 0.052785579 0.26055679
-0.0048676063 0.052794807 0.26060233
-0.0041194921 0.052804399 0.26064968
-0.0033711062 0.052813999 0.26069707
-0.0026224481 0.052823599 0.26074445
-0.0018735179 0.052833203 0.26079187
-0.0011243151 0.052842811 0.26083928
-0.00037483987 0.052852422 0.26088673
0.00037490809 0.052862041 0.2609342
0.0011249287 0.052871652 0.26098165
0.0018752213 0.052881241 0.26102898
0.0026253501 0.052882053 0.261033
0.0033748737 0.052873023 0.26098841
0.0041244058 0.052867383 0.26096058
0.0048756166 0.052881688 0.26103118
0.0056286496 0.052909307 0.26116753
0.0063817636 0.052931096 0.26127508
0.00713376 0.052940011 0.26131907
0.0078863334 0.052951094 0.26137379
0.0086392211 0.05296218 0.26142851
0.0094027687 0.053031616 0.26177126
-0.055608764 0.057209015 0.27844194
-0.051968496 0.054244488 0.26401329
-0.050183006 0.053156815 0.25871947
-0.049374178 0.053086519 0.25837734
-0.048629027 0.053083595 0.2583631
-0.047894198 0.053092018 0.25840411
-0.047159135 0.053100444 0.25844511
-0.046423841 0.053108875 0.25848615
-0.045688309 0.053117301 0.25852716
-0.044964559 0.053139932 0.25863731
-0.044250682 0.053175192 0.25880891
-0.04350872 0.053177323 0.25881928
-0.042757962 0.053168595 0.25877681
-0.042007495 0.053159926 0.25873461
-0.041263431 0.053159196 0.25873107
-0.040524453 0.053165104 0.25875983
-0.039784897 0.053170469 0.25878593
-0.039045196 0.053175841 0.25881207
-0.038305342 0.053181205 0.25883818
-0.037565343 0.053186573 0.25886431
-0.036825191 0.053191945 0.25889045
-0.03608489 0.053197313 0.25891659
-0.035344444 0.053202689 0.25894275
-0.034604311 0.053208776 0.25897238
-0.033864118 0.053215042 0.25900286
-0.033124059 0.053221799 0.25903577
-0.032384127 0.053229082 0.2590712
-0.03164399 0.053236362 0.25910664
-0.030903652 0.053243641 0.25914207
-0.030163113 0.053250927 0.25917754
-0.029422371 0.053258214 0.259213
-0.028681424 0.053265501 0.25924847
-0.027940277 0.053272795 0.25928396
-0.027198985 0.053280205 0.25932002
-0.026457708 0.053288061 0.25935826
-0.025716212 0.053295918 0.25939649
-0.024974497 0.053303778 0.25943476
-0.024232564 0.053311642 0.25947303
-0.02349041 0.053319503 0.25951129
-0.02274804 0.05332737 0.25954959
-0.022005448 0.053335238 0.25958788
-0.021262638 0.05334311 0.25962618
-0.020519869 0.053351663 0.25966781
-0.019776907 0.053360332 0.25971001
-0.0190337 0.053369004 0.25975221
-0.018290255 0.053377684 0.25979447
-0.017546704 0.053386778 0.25983873
-0.016802944 0.053396024 0.25988373
-0.016058929 0.053405277 0.25992876
-0.015314657 0.053414535 0.25997382
-0.014570125 0.053423792 0.26001889
-0.013825336 0.053433057 0.26006398
-0.013080289 0.053442322 0.26010907
-0.012334983 0.053451594 0.26015419
-0.011589418 0.053460862 0.26019931
-0.010843595 0.053470142 0.26024446
-0.010097512 0.053479418 0.26028961
-0.0093511669 0.053488676 0.26033467
-0.0086045628 0.053497933 0.26037973
-0.0078577008 0.053507198 0.26042482
-0.0071105845 0.053516507 0.26047012
-0.006363282 0.053526431 0.26051843
-0.005615694 0.053536285 0.26056638
-0.004867773 0.053545505 0.26061127
-0.0041195941 0.053554725 0.26065615
-0.0033711579 0.053563952 0.26070106
-0.0026224635 0.053573184 0.26074597
-0.001873511 0.053582415 0.26079091
-0.0011243077 0.053592004 0.26083758
-0.00037483743 0.053601753 0.26088503
0.00037490559 0.053611502 0.26093248
0.0011249215 0.053621255 0.26097995
0.0018752099 0.053631004 0.2610274
0.0026253029 0.053631186 0.26102829
0.0033749912 0.053624861 0.2609975
0.0041245488 0.053619135 0.26096964
0.0048758388 0.053634223 0.26104307
0.0056286748 0.053660035 0.26116869
0.0063817236 0.053681556 0.26127344
0.0071336902 0.053690404 0.26131651
0.0078859041 0.053699251 0.26135957
0.0086386632 0.05370995 0.26141164
0.0094030891 0.053785671 0.26178017
-0.055379961 0.057770461 0.27729627
-0.05188302 0.054912683 0.26357904
-0.050179064 0.053896032 0.25869915
-0.049373966 0.053828761 0.25837624
-0.04863197 0.053829283 0.25837874
-0.0478971 0.053837825 0.25841975
-0.047161993 0.053846367 0.25846076
-0.04642662 0.053854879 0.25850162
-0.045690838 0.053863183 0.25854146
-0.04496704 0.053886123 0.25865158
-0.04425313 0.053921878 0.25882322
-0.043510862 0.053923719 0.25883204
-0.04276007 0.053914871 0.25878957
-0.042009525 0.053906027 0.25874713
-0.041265238 0.05390504 0.25874239
-0.040525809 0.053910479 0.2587685
-0.039786231 0.053915918 0.25879461
-0.039046507 0.053921364 0.25882074
-0.038306631 0.053926811 0.25884688
-0.037566602 0.05393225 0.25887299
-0.036826428 0.0539377 0.25889915
-0.036086105 0.053943146 0.25892529
-0.035345629 0.053948592 0.25895143
-0.034605533 0.053954862 0.25898153
-0.033865314 0.053961214 0.25901201
-0.033124939 0.053967595 0.25904265
-0.032384988 0.053974979 0.25907809
-0.031644832 0.053982362 0.25911352
-0.030904477 0.053989749 0.25914899
-0.030163914 0.053997133 0.25918442
-0.029423155 0.054004528 0.25921991
-0.028682189 0.054011915 0.25925538
-0.027941022 0.05401931 0.25929087
-0.02719981 0.054027021 0.25932789
-0.026458507 0.054034982 0.2593661
-0.025716992 0.054042954 0.25940436
-0.024975251 0.054050919 0.2594426
-0.024233297 0.054058891 0.25948086
-0.023491122 0.05406687 0.25951916
-0.022748729 0.054074846 0.25955746
-0.022006115 0.054082826 0.25959575
-0.021263281 0.054090805 0.25963405
-0.020520303 0.054098982 0.2596733
-0.019777324 0.054107774 0.2597155
-0.019034104 0.054116573 0.25975773
-0.018290643 0.054125369 0.25979996
-0.017547093 0.054134652 0.25984451
-0.016803319 0.054144029 0.25988951
-0.016059287 0.054153409 0.25993454
-0.015314997 0.054162797 0.25997961
-0.014570449 0.054172184 0.26002467
-0.013825644 0.05418158 0.26006976
-0.013080579 0.054190971 0.26011485
-0.012335258 0.054200374 0.26015997
-0.011589677 0.05420978 0.26020512
-0.010843832 0.05421916 0.26025015
-0.010097728 0.054228541 0.26029518
-0.0093513671 0.054237928 0.26034024
-0.0086047482 0.054247323 0.26038533
-0.0078578694 0.054256719 0.26043043
-0.0071107317 0.05426611 0.26047552
-0.0063633947 0.054276016 0.26052305
-0.005615802 0.054286085 0.26057139
-0.0048679314 0.054296158 0.26061973
-0.0041197459 0.054305743 0.26066574
-0.003371282 0.054315101 0.26071066
-0.0026225604 0.054324463 0.2607556
-0.0018735802 0.054333825 0.26080054
-0.0011243419 0.05434319 0.26084548
-0.00037484523 0.054352559 0.26089045
0.0003749099 0.054361932 0.26093546
0.0011249236 0.054371309 0.26098046
0.001875198 0.054380741 0.26102573
0.0026253646 0.054382551 0.26103443
0.0033750175 0.054375283 0.26099953
0.0041244091 0.054367211 0.26096079
0.0048758672 0.054384671 0.26104459
0.0056286999 0.054410767 0.26116985
0.0063816835 0.054432005 0.2612718
0.0071336455 0.054440979 0.26131487
0.0078858547 0.054449949 0.26135793
0.008638313 0.054458927 0.26140103
0.0094062388 0.054556184 0.26186785
-0.055195313 0.058372021 0.27637172
-0.051786669 0.055566721 0.26308957
-0.050175123 0.054635134 0.25867882
-0.049375862 0.05457332 0.25838616
-0.048634615 0.054574721 0.25839278
-0.047899473 0.054583121 0.25843257
-0.047164112 0.054591533 0.25847238
-0.04642852 0.054599941 0.2585122
-0.045699906 0.054616962 0.25859278
-0.044973947 0.054637771 0.25869131
-0.04425557 0.054668646 0.25883749
-0.043513011 0.054670192 0.25884482
-0.042760123 0.054658592 0.2587899
-0.042007904 0.054647453 0.25873715
-0.041266806 0.054650638 0.25875223
-0.040527169 0.054655906 0.25877717
-0.039787564 0.054661419 0.25880328
-0.039047815 0.05466694 0.25882941
-0.038307913 0.054672461 0.25885555
-0.037567865 0.054677978 0.25888169
-0.036827665 0.054683499 0.25890782
-0.036087312 0.05468902 0.25893396
-0.035346825 0.054694559 0.25896019
-0.034606755 0.054701 0.25899068
-0.03386651 0.054707438 0.25902116
-0.033126093 0.054713883 0.25905168
-0.032385848 0.054720916 0.25908497
-0.031645674 0.0547284 0.2591204
-0.030905299 0.054735888 0.25915587
-0.030164719 0.054743379 0.25919133
-0.029423937 0.054750871 0.2592268
-0.028682955 0.054758366 0.25926229
-0.027941767 0.054765865 0.25929779
-0.027200632 0.054773878 0.25933573
-0.02645931 0.054781951 0.25937396
-0.025717769 0.054790027 0.2594122
-0.02497601 0.054798111 0.25945047
-0.02423403 0.054806191 0.25948873
-0.023491835 0.054814283 0.25952703
-0.022749418 0.05482237 0.25956532
-0.022006782 0.054830458 0.25960362
-0.021263929 0.054838553 0.25964195
-0.020520855 0.054846648 0.25968027
-0.019777743 0.054855254 0.25972101
-0.019034509 0.054864172 0.25976324
