# .PCD v0.7 - Point Cloud Data file format
VERSION 0.7
FIELDS x y z
SIZE 4 4 4
TYPE F F F
COUNT 1 1 1
WIDTH 1309
HEIGHT 1
VIEWPOINT 0 0 0 1 0 0 0
POINTS 1309
DATA ascii
-0.11898942 -0.025460619 0.36164218
-0.11748806 -0.02536086 0.3602252
-0.11612301 -0.025289012 0.35920468
-0.11487551 -0.025241705 0.35853273
-0.11367749 -0.025204513 0.35800445
-0.11254084 -0.025180371 0.35766155
-0.11143762 -0.025163334 0.35741955
-0.11035579 -0.025150856 0.35724232
-0.10928566 -0.025140833 0.35709995
-0.10822546 -0.025132928 0.35698766
-0.10716547 -0.025124919 0.3568739
-0.10610436 -0.02511649 0.35675418
-0.10503735 -0.025106488 0.35661212
-0.10397118 -0.025096491 0.35647011
-0.10291829 -0.025089532 0.35637128
-0.10186861 -0.025083225 0.3562817
-0.10082015 -0.025077095 0.35619462
-0.099780202 -0.025072975 0.35613608
-0.098740362 -0.025068797 0.35607675
-0.097700156 -0.025064439 0.35601485
-0.096660316 -0.025060082 0.35595295
-0.095627658 -0.025057515 0.3559165
-0.094600387 -0.025056319 0.35589951
-0.09357404 -0.025055343 0.35588565
-0.092547774 -0.025054369 0.35587183
-0.091521583 -0.025053395 0.35585797
-0.090498127 -0.025053153 0.35585454
-0.089479074 -0.025054142 0.35586858
-0.088460423 -0.025055263 0.35588452
-0.087442808 -0.02505671 0.35590509
-0.086429395 -0.025059409 0.35594341
-0.08541666 -0.025062373 0.35598549
-0.084406845 -0.025066275 0.35604092
-0.083399311 -0.025070958 0.35610744
-0.082392953 -0.025076117 0.35618073
-0.081386074 -0.025081243 0.35625353
-0.080378354 -0.025086237 0.35632446
-0.079374433 -0.025092563 0.35641432
-0.078371339 -0.025099317 0.35651025
-0.077367701 -0.025106074 0.35660625
-0.07636565 -0.025113536 0.35671222
-0.075365819 -0.025121938 0.35683158
-0.0743654 -0.025130376 0.35695142
-0.073365241 -0.02513914 0.3570759
-0.072366118 -0.025148511 0.357209
-0.071367092 -0.025158184 0.35734639
-0.070368968 -0.025168462 0.35749239
-0.069370031 -0.025178751 0.35763854
-0.068370268 -0.025189048 0.35778478
-0.067371629 -0.025200075 0.35794142
-0.066374131 -0.02521188 0.35810909
-0.065376662 -0.025224067 0.35828221
-0.064378232 -0.025236268 0.35845551
-0.063379012 -0.025248548 0.35862994
-0.062380243 -0.025261421 0.35881278
-0.061383158 -0.025275419 0.35901159
-0.060384911 -0.025289407 0.35921028
-0.059385445 -0.025303364 0.35940853
-0.058385372 -0.025317552 0.35961005
-0.057386179 -0.025332637 0.35982433
-0.056385789 -0.025347739 0.36003885
-0.055384222 -0.025362868 0.36025372
-0.054381546 -0.025378054 0.36046943
-0.053378969 -0.025393879 0.3606942
-0.052376229 -0.02541025 0.36092675
-0.051372193 -0.025426641 0.36115956
-0.050366864 -0.025443055 0.36139271
-0.049360234 -0.025459491 0.36162615
-0.048352282 -0.025475934 0.36185971
-0.047344644 -0.02549327 0.36210597
-0.046335787 -0.025510715 0.36235374
-0.045325547 -0.025528181 0.36260185
-0.04431393 -0.025545677 0.36285034
-0.043301389 -0.025563471 0.36310309
-0.042287439 -0.025581291 0.3633562
-0.041272085 -0.025599143 0.36360976
-0.040255509 -0.025617141 0.36386544
-0.03923858 -0.025635872 0.36413148
-0.038222041 -0.025655892 0.36441582
-0.037207682 -0.025678542 0.36473754
-0.036195602 -0.025704123 0.36510092
-0.035186078 -0.025733102 0.36551252
-0.034182459 -0.025768315 0.36601269
-0.033187795 -0.025812728 0.36664355
-0.032200936 -0.025866324 0.36740482
-0.03122033 -0.025928749 0.3682915
-0.030255843 -0.026009409 0.36943719
-0.02930182 -0.026105257 0.37079862
-0.028360916 -0.026220471 0.37243509
-0.027450779 -0.026374279 0.37461978
-0.026579147 -0.026579147 0.37752974
-0.025853371 -0.026953515 0.38284725
-0.12131231 -0.024682589 0.36550984
-0.11931638 -0.024488516 0.36263591
-0.11771093 -0.024371866 0.36090851
-0.11628065 -0.024289735 0.35969228
-0.11498722 -0.024234973 0.35888135
-0.11377667 -0.024196848 0.35831678
-0.11262104 -0.024169812 0.35791641
-0.11149272 -0.02414819 0.35759625
-0.11041051 -0.024136251 0.35741943
-0.10933379 -0.024125297 0.35725722
-0.10827264 -0.024117602 0.35714328
-0.10721218 -0.024109915 0.35702944
-0.10615297 -0.024102366 0.35691765
-0.10508783 -0.024093308 0.35678351
-0.10402119 -0.024083724 0.35664159
-0.10296237 -0.024075778 0.35652393
-0.10191287 -0.024069874 0.35643649
-0.10086396 -0.02406399 0.35634935
-0.099818558 -0.024058832 0.35627297
-0.098777592 -0.024054646 0.35621101
-0.097736984 -0.024050463 0.35614905
-0.096696749 -0.024046281 0.35608712
-0.095661476 -0.024043258 0.35604236
-0.094634257 -0.024042217 0.35602695
-0.093607128 -0.024041176 0.35601151
-0.092580095 -0.024040135 0.3559961
-0.091553144 -0.024039093 0.35598069
-0.090528227 -0.024038568 0.35597292
-0.089507774 -0.024039231 0.35598272
-0.088488363 -0.024040191 0.35599694
-0.087469511 -0.024041329 0.35601377
-0.086455785 -0.024043916 0.3560521
-0.085441843 -0.024046507 0.35609046
-0.084429964 -0.024049746 0.35613844
-0.083423197 -0.024054542 0.35620946
-0.082415082 -0.024059061 0.35627636
-0.081406116 -0.024063444 0.35634127
-0.080400065 -0.02406881 0.35642073
-0.079394974 -0.024074605 0.35650656
-0.078390114 -0.024080623 0.35659567
-0.077386238 -0.024087107 0.35669169
-0.076383099 -0.024093999 0.35679373
-0.075383045 -0.024102062 0.35691315
-0.074382484 -0.024110185 0.35703343
-0.073381275 -0.024118321 0.35715392
-0.072380513 -0.024126839 0.35728005
-0.071381629 -0.024136234 0.35741919
-0.07038331 -0.024146099 0.35756525
-0.069384173 -0.024155973 0.35771146
-0.068384215 -0.024165852 0.35785776
-0.067383476 -0.02417575 0.35800436
-0.066386141 -0.024187198 0.35817388
-0.065388501 -0.024198893 0.35834706
-0.064389832 -0.024210578 0.35852009
-0.063390173 -0.024222262 0.35869312
-0.062390108 -0.024234174 0.35886952
-0.061392259 -0.024247363 0.35906482
-0.060393758 -0.024260741 0.35926291
-0.059394155 -0.024274133 0.35946125
-0.058393944 -0.024287745 0.35966283
-0.057394601 -0.024302218 0.35987714
-0.056394074 -0.024316709 0.36009175
-0.055392344 -0.024331216 0.36030656
-0.054389186 -0.024345636 0.36052009
-0.053385191 -0.024360234 0.36073625
-0.052381966 -0.024375767 0.36096627
-0.051377699 -0.024391433 0.36119828
-0.050372139 -0.024407119 0.36143056
-0.04936529 -0.024422826 0.36166316
-0.04835714 -0.024438554 0.36189607
-0.047349107 -0.024455033 0.36214009
-0.046339888 -0.024471626 0.36238581
-0.045329385 -0.024488289 0.36263254
-0.044317678 -0.024505069 0.36288103
-0.043305028 -0.024522126 0.36313361
-0.042290997 -0.024539221 0.36338678
-0.04127555 -0.024556341 0.36364028
-0.040258646 -0.024573458 0.36389378
-0.039240871 -0.024590945 0.36415273
-0.038224179 -0.024610089 0.36443621
-0.037206482 -0.024629645 0.3647258
-0.03619457 -0.024654273 0.36509052
-0.035180576 -0.024678912 0.36545539
-0.034175429 -0.024711465 0.36593744
-0.033177692 -0.024751611 0.36653194
-0.03218342 -0.02479706 0.36720496
-0.03120332 -0.024856882 0.36809084
-0.030230511 -0.024926912 0.36912787
-0.029269012 -0.0250117 0.37038344
-0.028325209 -0.025118582 0.37196618
-0.027401805 -0.025252644 0.37395144
-0.026510857 -0.025428781 0.37655973
-0.025690429 -0.025690429 0.38043433
-0.12206105 -0.023778126 0.36776578
-0.11967175 -0.023516282 0.36371595
-0.11793043 -0.023378279 0.36158153
-0.1164538 -0.023290759 0.36022788
-0.11512285 -0.023231067 0.35930467
-0.11388677 -0.023189612 0.3586635
-0.11270135 -0.023157811 0.35817164
-0.11156987 -0.02313661 0.35784373
-0.1104651 -0.023120603 0.35759616
-0.1093879 -0.023110118 0.357434
-0.10831987 -0.023101393 0.35729906
-0.10725894 -0.02309403 0.35718516
-0.10619941 -0.023086829 0.35707378
-0.10513827 -0.023079133 0.35695475
-0.10407114 -0.023069957 0.35681283
-0.10300649 -0.023061154 0.3566767
-0.10195603 -0.023055384 0.35658744
-0.1009061 -0.023049617 0.35649824
-0.099858284 -0.023044219 0.35641477
-0.098814949 -0.023039754 0.35634571
-0.097773947 -0.023035746 0.35628372
-0.096733317 -0.023031743 0.3562218
-0.095698014 -0.023028933 0.35617834
-0.094665125 -0.023026651 0.35614306
-0.093636811 -0.023025446 0.3561244
-0.09260945 -0.023024449 0.35610899
-0.091582172 -0.023023451 0.35609356
-0.09056063 -0.023023888 0.35610032
-0.089539818 -0.023024524 0.35611016
-0.08851894 -0.023025159 0.35611996
-0.087497242 -0.023025589 0.35612664
-0.086481921 -0.023027731 0.35615975
-0.085467681 -0.023030212 0.35619813
-0.084453404 -0.023032747 0.35623732
-0.083444215 -0.023036746 0.35629919
-0.082435377 -0.023040943 0.3563641
-0.081426665 -0.023045283 0.35643122
-0.08042179 -0.023050832 0.35651705
-0.079416431 -0.023056384 0.35660291
-0.078410588 -0.023061939 0.35668883
-0.077404782 -0.023067649 0.35677716
-0.076400563 -0.023073995 0.3568753
-0.075400345 -0.023081737 0.35699505
-0.074399583 -0.023089526 0.35711551
-0.073398143 -0.023097318 0.35723603
-0.072396033 -0.023105117 0.35735664
-0.071396008 -0.023113815 0.35749117
-0.07039728 -0.023123195 0.35763624
-0.069397748 -0.023132583 0.35778144
-0.068397395 -0.023141976 0.35792673
-0.067396477 -0.023151463 0.35807344
-0.066397876 -0.02316205 0.35823721
-0.06539958 -0.023173079 0.3584078
-0.064400725 -0.023184262 0.35858074
-0.063400902 -0.023195453 0.35875383
-0.062401298 -0.023207095 0.3589339
-0.061402552 -0.023219451 0.35912502
-0.06040274 -0.023231823 0.35931635
-0.059402868 -0.023244601 0.35951397
-0.058402512 -0.023257637 0.35971561
-0.057403032 -0.023271499 0.35993001
-0.056402143 -0.023285288 0.36014327
-0.055399511 -0.02329886 0.36035317
-0.054395702 -0.023312444 0.36056328
-0.053391691 -0.023326468 0.36078018
-0.052387752 -0.023341076 0.36100614
-0.051382851 -0.023355842 0.36123449
-0.050377198 -0.023370866 0.36146685
-0.049370248 -0.023385907 0.36169949
-0.048361998 -0.023400966 0.36193243
-0.047353797 -0.023416713 0.36217597
-0.046344485 -0.023432605 0.36242175
-0.045333803 -0.023448519 0.36266789
-0.04432153 -0.023464339 0.36291257
-0.043308426 -0.023480473 0.3631621
-0.042294253 -0.023496807 0.36341473
-0.04127866 -0.023513163 0.3636677
-0.040261656 -0.023529539 0.36392099
-0.039242368 -0.023545422 0.36416665
-0.03822517 -0.023563461 0.36444566
-0.037208211 -0.023582669 0.36474273
-0.036193457 -0.023604427 0.36507925
-0.035179574 -0.023628073 0.36544496
-0.034169279 -0.023655655 0.36587158
-0.033169795 -0.023692708 0.36644468
-0.032170091 -0.023732033 0.36705288
-0.031186329 -0.023786183 0.36789039
-0.030203899 -0.023845185 0.36880293
-0.029237727 -0.023921777 0.36998755
-0.028288499 -0.024018537 0.3714841
-0.027349854 -0.024132224 0.37324247
-0.026441846 -0.024283327 0.37557951
-0.025587568 -0.024498736 0.37891114
-0.024998184 -0.024998184 0.38663587
-0.12012821 -0.022556825 0.36510327
-0.11823718 -0.022397351 0.36252204
-0.11667099 -0.022297123 0.36089975
-0.11528012 -0.022228902 0.35979554
-0.11399597 -0.022180211 0.35900742
-0.11278992 -0.022145966 0.35845312
-0.11164881 -0.022123959 0.35809693
-0.11051974 -0.022103949 0.35777304
-0.10944266 -0.022094058 0.35761294
-0.10836945 -0.022084771 0.35746261
-0.10730589 -0.022077288 0.35734153
-0.10624589 -0.022070402 0.35723007
-0.10518655 -0.02206352 0.35711867
-0.10412109 -0.022055207 0.35698411
-0.10305472 -0.022046532 0.35684371
-0.10199767 -0.022039697 0.35673305
-0.10094729 -0.022034179 0.35664377
-0.099899806 -0.022029188 0.35656297
-0.098854348 -0.022024544 0.35648781
-0.097810946 -0.022020265 0.35641855
-0.096769907 -0.022016434 0.35635653
-0.09573628 -0.022014225 0.35632077
-0.094702981 -0.022012044 0.35628548
-0.093669876 -0.022009863 0.35625017
-0.092638828 -0.022008119 0.35622194
-0.091614179 -0.022007875 0.35621801
-0.090592466 -0.022008339 0.35622552
-0.089570068 -0.022008644 0.35623047
-0.08854764 -0.022008952 0.35623541
-0.08752533 -0.022009293 0.35624096
-0.086507253 -0.022010721 0.35626405
-0.085492723 -0.022013096 0.3563025
-0.084477961 -0.022015469 0.35634091
-0.083466686 -0.022018818 0.35639513
-0.082455687 -0.022022326 0.3564519
-0.081448667 -0.022026999 0.35652754
-0.080443524 -0.022032304 0.3566134
-0.079437912 -0.022037614 0.35669935
-0.0784318 -0.022042925 0.3567853
-0.077425204 -0.022048237 0.35687131
-0.076418452 -0.022053648 0.35695887
-0.075417675 -0.022060951 0.35707709
-0.074416719 -0.022068407 0.35719776
-0.073415086 -0.022075865 0.35731849
-0.07241258 -0.022083269 0.35743833
-0.071409926 -0.022090841 0.35756087
-0.070410445 -0.022099629 0.35770312
-0.069410563 -0.022108549 0.35784751
-0.068410031 -0.022117529 0.35799286
-0.067410141 -0.022126993 0.35814604
-0.066411346 -0.022137115 0.35830986
-0.065411627 -0.022147244 0.35847381
-0.064411618 -0.022157596 0.35864139
-0.063411631 -0.022168294 0.35881454
-0.062412497 -0.022179648 0.3589983
-0.061413571 -0.022191459 0.35918948
-0.060413584 -0.022203283 0.35938087
-0.059412532 -0.02221512 0.35957247
-0.058410898 -0.022227155 0.35976726
-0.057410475 -0.022240095 0.35997668
-0.056408893 -0.02225305 0.36018637
-0.055406138 -0.022266019 0.3603963
-0.054402217 -0.022279004 0.36060646
-0.053398192 -0.02229245 0.36082411
-0.052394133 -0.022306414 0.36105013
-0.051388815 -0.022320395 0.36127642
-0.050382253 -0.022334401 0.36150312
-0.049375206 -0.022348776 0.36173582
-0.04836686 -0.022363173 0.36196882
-0.047358494 -0.022378189 0.36221188
-0.046349086 -0.022393377 0.36245772
-0.045337975 -0.022408424 0.36270127
-0.044325355 -0.022423416 0.36294392
-0.043312069 -0.022438783 0.36319265
-0.042297408 -0.02245418 0.36344185
-0.041281749 -0.022469811 0.36369488
-0.040264588 -0.022485418 0.36394748
-0.039244905 -0.022500411 0.36419016
-0.038226854 -0.022517189 0.36446172
-0.037209995 -0.022535631 0.36476022
-0.036192141 -0.022554522 0.36506599
-0.035178456 -0.022577219 0.36543337
-0.034163132 -0.022600226 0.36580575
-0.033163175 -0.022635184 0.36637157
-0.032161962 -0.022671547 0.36696014
-0.031169357 -0.022716649 0.36769018
-0.030185802 -0.022771746 0.36858195
-0.029212549 -0.022838904 0.36966896
-0.02825113 -0.022920728 0.37099338
-0.027307091 -0.023023626 0.37265888
-0.026387969 -0.023156788 0.37481424
-0.025501806 -0.023331441 0.37764114
-0.024739968 -0.023640413 0.38264215
-0.12081674 -0.021630947 0.36719593
-0.11855635 -0.021413261 0.36350062
-0.11688677 -0.021299368 0.36156723
-0.11543074 -0.021222692 0.36026561
-0.11412112 -0.021171791 0.35940155
-0.11289991 -0.021136513 0.35880268
-0.11172369 -0.021109084 0.35833707
-0.11059531 -0.021090267 0.35801765
-0.10949672 -0.021076834 0.35778961
-0.10842299 -0.021067973 0.35763919
-0.10735275 -0.02105963 0.35749757
-0.10629241 -0.021053085 0.35738647
-0.10523258 -0.021046516 0.35727495
-0.10417109 -0.021039482 0.35715553
-0.10310412 -0.02103119 0.35701478
-0.10204034 -0.021023385 0.3568823
-0.10098851 -0.021017915 0.35678941
-0.099941358 -0.02101331 0.35671127
-0.09889546 -0.021008879 0.35663605
-0.097850002 -0.02100445 0.35656086
-0.096808508 -0.021000788 0.35649869
-0.095774218 -0.020998625 0.35646197
-0.09473972 -0.020996371 0.35642371
-0.093705453 -0.020994117 0.35638547
-0.092671409 -0.020991866 0.35634723
-0.091644272 -0.020991147 0.35633501
-0.090621412 -0.0209914 0.35633934
-0.089598686 -0.020991692 0.35634428
-0.088575929 -0.020991983 0.35634923
-0.087553643 -0.020992395 0.3563562
-0.086534396 -0.020993551 0.35637584
-0.085517772 -0.02099538 0.3564069
-0.084502719 -0.020997645 0.35644534
-0.08349093 -0.021000786 0.35649866
-0.082479089 -0.021003991 0.35655308
-0.081468306 -0.021007551 0.35661349
-0.080462649 -0.021012539 0.35669819
-0.079456709 -0.021017581 0.35678378
-0.078450292 -0.021022627 0.35686943
-0.077443391 -0.021027675 0.35695511
-0.076436907 -0.021032974 0.35704505
-0.075435117 -0.021039726 0.35715967
-0.074433938 -0.021046838 0.3572804
-0.07343208 -0.021053953 0.35740119
-0.072428726 -0.021060836 0.35751802
-0.07142444 -0.021067642 0.35763356
-0.070424482 -0.02107594 0.35777444
-0.069424011 -0.021084331 0.35791686
-0.06842275 -0.021092728 0.35805941
-0.067423806 -0.021102108 0.35821864
-0.066424809 -0.021111762 0.35838252
-0.065424897 -0.021121424 0.35854656
-0.064424075 -0.021131096 0.35871074
-0.063422367 -0.02114079 0.35887527
-0.062423538 -0.021151777 0.35906181
-0.06142382 -0.021162828 0.35924941
-0.060423054 -0.021173891 0.3594372
-0.059421249 -0.021184968 0.35962522
-0.058419444 -0.021196434 0.35981989
-0.057418004 -0.021208452 0.36002389
-0.056415733 -0.021220597 0.36023006
-0.055412773 -0.021232933 0.36043945
-0.054408737 -0.021245316 0.36064968
-0.0534047 -0.021258181 0.36086807
-0.052400518 -0.021271497 0.36109412
-0.051395081 -0.021284832 0.36132047
-0.050388381 -0.021298181 0.36154708
-0.049380418 -0.021311548 0.361774
-0.048371717 -0.021325167 0.36200517
-0.047363188 -0.021339459 0.36224779
-0.046353243 -0.02135374 0.36249024
-0.045341875 -0.02136801 0.36273247
-0.04432923 -0.021382334 0.36297563
-0.043315854 -0.021396989 0.36322439
-0.042301092 -0.021411663 0.3634735
-0.041284934 -0.021426357 0.36372295
-0.040267307 -0.021441033 0.36397207
-0.039248683 -0.021455947 0.36422524
-0.038228642 -0.021470882 0.36447877
-0.037211727 -0.021488464 0.36477721
-0.036193185 -0.021506095 0.36507654
-0.035177313 -0.021526415 0.36542147
-0.034161706 -0.021548154 0.36579049
-0.033154961 -0.021577038 0.36628082
-0.032153241 -0.021611195 0.36686066
-0.03115204 -0.021648029 0.36748591
-0.030167785 -0.021699633 0.36836195
-0.029188264 -0.021758525 0.36936164
-0.028220922 -0.021831278 0.37059668
-0.027271375 -0.021924047 0.37217146
-0.0263371 -0.022037165 0.37409171
-0.025431838 -0.022185219 0.376605
-0.024592826 -0.022406798 0.38036638
-0.1222124 -0.020813467 0.37143773
-0.11900084 -0.020445079 0.36486349
-0.11717523 -0.020310374 0.36245951
-0.11563569 -0.020223282 0.36090529
-0.11426996 -0.020165287 0.35987031
-0.11300693 -0.020124523 0.35914281
-0.11180573 -0.020094117 0.3586002
-0.11067042 -0.0200751 0.35826081
-0.10954957 -0.020058373 0.35796231
-0.10847531 -0.020049939 0.35781178
-0.10740022 -0.020041188 0.35765564
-0.1063384 -0.02003477 0.35754108
-0.10527866 -0.020028625 0.35743141
-0.10421902 -0.020022374 0.35731986
-0.10315358 -0.020014875 0.35718602
-0.10208926 -0.020007445 0.35705343
-0.10102976 -0.020000815 0.35693514
-0.09998294 -0.019996587 0.35685968
-0.098935984 -0.019992245 0.3567822
-0.097889349 -0.019987877 0.35670424
-0.096845217 -0.019983934 0.35663387
-0.095807299 -0.019981202 0.35658512
-0.094772451 -0.019979058 0.35654685
-0.093737826 -0.019976914 0.35650858
-0.092704065 -0.01997491 0.35647282
-0.09167555 -0.019974003 0.35645664
-0.090651162 -0.019973984 0.35645631
-0.089627318 -0.019974088 0.35645816
-0.088604234 -0.019974366 0.3564631
-0.087581992 -0.019974839 0.35647157
-0.086562403 -0.019975938 0.35649118
-0.085542835 -0.019977069 0.35651135
-0.0845275 -0.019979227 0.35654986
-0.083515182 -0.019982161 0.35660222
-0.082503803 -0.019985395 0.35665992
-0.081492722 -0.019988781 0.35672036
-0.080481298 -0.019992169 0.35678083
-0.079474263 -0.019996749 0.35686257
-0.078467719 -0.020001575 0.3569487
-0.07746172 -0.02000667 0.3570396
-0.076455198 -0.020011764 0.35713053
-0.075452559 -0.020018026 0.35724229
-0.074451163 -0.020024795 0.35736308
-0.073448732 -0.020031473 0.35748225
-0.072444879 -0.020037943 0.35759774
-0.071440376 -0.020044422 0.35771334
-0.070438527 -0.020051844 0.35784578
-0.069437861 -0.020059828 0.35798827
-0.068436876 -0.020067956 0.35813335
-0.067435637 -0.020076258 0.35828149
-0.066435874 -0.020085264 0.35844222
-0.065435857 -0.020094477 0.35860661
-0.064434923 -0.020103697 0.35877115
-0.063433327 -0.020113006 0.35893729
-0.062432215 -0.02012278 0.35911173
-0.061432365 -0.020133296 0.35929939
-0.060431473 -0.020143824 0.35948727
-0.059429616 -0.02015439 0.35967585
-0.058428295 -0.020165518 0.35987443
-0.057426184 -0.020176766 0.36007518
-0.056423776 -0.020188324 0.36028141
-0.055420224 -0.020199895 0.36048791
-0.054415517 -0.020211477 0.36069462
-0.05341116 -0.020223644 0.36091173
-0.052406818 -0.020236297 0.36113754
-0.05140122 -0.020248964 0.36136362
-0.05039436 -0.020261651 0.36159
-0.049386237 -0.02027435 0.36181664
-0.048376847 -0.020287065 0.36204356
-0.047367327 -0.020300284 0.36227944
-0.046357226 -0.02031384 0.36252138
-0.045345772 -0.020327415 0.36276364
-0.044333104 -0.02034107 0.36300734
-0.043319639 -0.020355012 0.36325613
-0.042304788 -0.020368973 0.36350527
-0.041288622 -0.020382989 0.36375543
-0.040271409 -0.020397207 0.36400914
-0.039253 -0.02041156 0.36426529
-0.03823306 -0.020425882 0.36452088
-0.037213407 -0.020441167 0.36479366
-0.036194894 -0.020457983 0.36509377
-0.035176907 -0.020476108 0.36541724
-0.034161303 -0.020496782 0.36578616
-0.033146139 -0.020519037 0.36618334
-0.03214322 -0.020550583 0.36674631
-0.031142216 -0.020585533 0.36737001
-0.03014979 -0.020628802 0.36814222
-0.029168854 -0.020683369 0.36911601
-0.028194912 -0.020747198 0.37025511
-0.027235772 -0.020827355 0.37168559
-0.026286604 -0.02092199 0.37337446
-0.025374332 -0.021055296 0.37575343
-0.024499627 -0.021233009 0.37892491
-0.023821609 -0.021605644 0.38557497
-0.11955439 -0.019486839 0.36656067
-0.11748265 -0.01931937 0.36341047
-0.11585633 -0.0192228 0.36159393
-0.11441921 -0.019156156 0.36034033
-0.11312165 -0.019111877 0.35950738
-0.11191091 -0.019081583 0.35893756
-0.1107458 -0.01905858 0.35850483
-0.10962003 -0.019041978 0.35819253
-0.10852766 -0.019030917 0.35798448
-0.10745158 -0.019022528 0.35782668
-0.10638379 -0.019015461 0.35769373
-0.10532378 -0.019009659 0.3575846
-0.10426442 -0.019003861 0.35747552
-0.10320308 -0.018997582 0.35735741
-0.10213809 -0.0189905 0.3572242
-0.10107353 -0.018983355 0.35708979
-0.10002252 -0.018978631 0.35700095
-0.098975003 -0.018974481 0.35692289
-0.097927943 -0.018970335 0.35684487
-0.09688431 -0.01896677 0.35677782
-0.09584219 -0.018963428 0.35671496
-0.094805203 -0.01896104 0.35667005
-0.093770213 -0.018959004 0.35663176
-0.092736818 -0.01895725 0.35659876
-0.09170685 -0.018956164 0.35657832
-0.090682112 -0.018956147 0.35657802
-0.089657381 -0.018956132 0.35657772
-0.088632643 -0.018956115 0.3565774
-0.087610342 -0.018956624 0.35658696
-0.086590424 -0.018957667 0.3566066
-0.08557041 -0.018958714 0.35662627
-0.084552281 -0.01896021 0.35665441
-0.083539568 -0.018962968 0.35670632
-0.082528524 -0.018966183 0.35676679
-0.081517145 -0.018969398 0.35682726
-0.080505423 -0.018972615 0.35688779
-0.07949274 -0.018975686 0.35694554
-0.078486502 -0.018980397 0.35703415
-0.077480271 -0.018985232 0.3571251
-0.076473512 -0.018990068 0.35721606
-0.075470023 -0.018995857 0.35732496
-0.074468389 -0.019002279 0.35744578
-0.073465109 -0.019008454 0.35756195
-0.072461039 -0.019014599 0.35767752
-0.071456313 -0.019020746 0.35779315
-0.070452578 -0.019027337 0.35791716
-0.069451883 -0.019034961 0.35806054
-0.068451263 -0.019042833 0.35820863
-0.067449816 -0.019050712 0.35835683
-0.066447541 -0.019058596 0.35850516
-0.065446563 -0.019067109 0.35866526
-0.064445466 -0.019075857 0.35882983
-0.063444279 -0.019084865 0.35899928
-0.062442604 -0.01909402 0.35917148
-0.061440915 -0.019103479 0.3593494
-0.060439885 -0.019113468 0.3595373
-0.059438623 -0.019123731 0.35973036
-0.058437157 -0.019134291 0.359929
-0.057434589 -0.019144863 0.36012787
-0.0564318 -0.019155748 0.36033264
-0.055428073 -0.019166717 0.36053896
-0.054423202 -0.019177699 0.36074555
-0.053417888 -0.01918895 0.36095718
-0.052412242 -0.019200524 0.36117491
-0.051406544 -0.019212546 0.36140105
-0.050399583 -0.019224582 0.36162746
-0.049391359 -0.019236635 0.36185417
-0.048382364 -0.019248897 0.36208484
-0.04737284 -0.019261485 0.36232162
-0.046361998 -0.019274088 0.36255869
-0.045349825 -0.019286707 0.36279607
-0.044336975 -0.019299624 0.36303905
-0.043323498 -0.019312885 0.36328849
-0.04230864 -0.019326169 0.36353835
-0.041292381 -0.019339468 0.36378855
-0.040275168 -0.019353002 0.36404312
-0.039256666 -0.019366622 0.36429933
-0.038236704 -0.019380247 0.36455563
-0.037215739 -0.019394118 0.36481655
-0.036196627 -0.019409785 0.36511123
-0.035176497 -0.019425828 0.36541301
-0.034160845 -0.019445404 0.36578128
-0.033142973 -0.019464921 0.36614838
-0.032133207 -0.019490635 0.36663207
-0.03113351 -0.019524405 0.36726731
-0.030135607 -0.01956171 0.36796907
-0.029148623 -0.019609075 0.36886001
-0.028169641 -0.019665599 0.36992326
-0.027201222 -0.019734221 0.37121409
-0.026251784 -0.019822774 0.37287986
-0.025321178 -0.019933693 0.37496632
-0.024420679 -0.020079223 0.37770385
-0.023620948 -0.020325001 0.38232708
-0.12051678 -0.018581882 0.36951143
-0.11788391 -0.018337497 0.36465168
-0.11612105 -0.018225277 0.36242011
-0.11461028 -0.01815095 0.3609421
-0.11326924 -0.018102391 0.35997644
-0.11201536 -0.018066995 0.35927257
-0.11081999 -0.018040463 0.35874498
-0.10969403 -0.018024841 0.35843435
-0.10858008 -0.018010914 0.3581574
-0.10750297 -0.01800289 0.35799783
-0.10642923 -0.017995279 0.3578465
-0.10536876 -0.017989788 0.35773727
-0.10430893 -0.017984297 0.35762811
-0.10325052 -0.017978946 0.35752168
-0.10218602 -0.017972415 0.3573918
-0.10112094 -0.01796565 0.35725728
-0.10006198 -0.017959844 0.35714182
-0.099014051 -0.017955916 0.35706371
-0.097966567 -0.01795199 0.35698563
-0.096923418 -0.017948782 0.35692185
-0.095880874 -0.017945617 0.35685894
-0.094838701 -0.017942457 0.35679609
-0.093803093 -0.017940482 0.35675681
-0.0927696 -0.017938873 0.3567248
-0.091738164 -0.01793763 0.35670009
-0.090713084 -0.017937616 0.35669979
-0.089688003 -0.017937601 0.3566995
-0.088662624 -0.017937524 0.35669801
-0.087638266 -0.017937656 0.35670063
-0.086618222 -0.017938685 0.35672107
-0.085598066 -0.017939715 0.35674155
-0.084577657 -0.017940715 0.35676146
-0.083564594 -0.017943317 0.35681319
-0.082552508 -0.017946199 0.35687047
-0.081540108 -0.01794908 0.35692778
-0.080527373 -0.017951962 0.35698509
-0.079514317 -0.017954845 0.35704243
-0.078506194 -0.017958933 0.35712373
-0.077498816 -0.017963303 0.35721061
-0.07649184 -0.017967882 0.35730165
-0.075487487 -0.017973211 0.35740763
-0.074485138 -0.017979171 0.35752615
-0.073481493 -0.017984981 0.3576417
-0.072477199 -0.017990794 0.3577573
-0.071472257 -0.017996613 0.35787299
-0.070466667 -0.018002434 0.35798874
-0.069466479 -0.018009828 0.35813579
-0.068465658 -0.018017277 0.35828394
-0.067464001 -0.018024733 0.3584322
-0.066461518 -0.018032195 0.35858059
-0.065458208 -0.018039664 0.35872909
-0.064456128 -0.018047715 0.35888919
-0.063455239 -0.01805637 0.3590613
-0.062453397 -0.018065032 0.35923356
-0.061450586 -0.018073702 0.35940596
-0.060448304 -0.018082825 0.3595874
-0.059447628 -0.018092757 0.35978487
-0.058445729 -0.018102659 0.35998181
-0.057442725 -0.01811257 0.36017889
-0.056439765 -0.018122861 0.36038351
-0.055435885 -0.018133232 0.36058977
-0.054430872 -0.018143624 0.36079639
-0.053425334 -0.018154241 0.36100751
-0.052419409 -0.018165141 0.36122429
-0.051412273 -0.018176056 0.36144134
-0.050404806 -0.018187301 0.36166495
-0.049396481 -0.018198702 0.36189169
-0.04838803 -0.018210549 0.36212724
-0.047378395 -0.018222459 0.36236408
-0.04636715 -0.018234272 0.36259899
-0.045354433 -0.018246036 0.36283293
-0.044341356 -0.018258207 0.36307493
-0.043327518 -0.01827064 0.3633222
-0.042312488 -0.018283173 0.36357144
-0.041296139 -0.018295759 0.36382169
-0.040278926 -0.018308602 0.36407709
-0.039260134 -0.018321397 0.36433151
-0.038239833 -0.018334167 0.36458546
-0.037218817 -0.018347302 0.36484668
-0.036199253 -0.018361941 0.36513776
-0.035178095 -0.018376617 0.36542958
-0.03416039 -0.018394057 0.36577639
-0.033142529 -0.018412517 0.36614349
-0.032127786 -0.018433977 0.36657023
-0.031126788 -0.018465044 0.36718801
-0.030122219 -0.0184961 0.36780557
-0.029130541 -0.018537616 0.36863118
-0.02814707 -0.018587686 0.36962685
-0.027176483 -0.018650526 0.37087646
-0.026217055 -0.018726468 0.37238657
-0.025272384 -0.018819861 0.37424377
-0.024362626 -0.018948708 0.37680596
-0.023500443 -0.019128267 0.38037661
-0.11837071 -0.017361037 0.3661575
-0.11642238 -0.017228425 0.36336058
-0.11483108 -0.017146721 0.36163741
-0.1134211 -0.017090851 0.36045906
-0.11212159 -0.017050749 0.35961327
-0.11092377 -0.017025508 0.35908094
-0.10976643 -0.017006066 0.35867089
-0.10864351 -0.01699164 0.35836661
-0.10755499 -0.016982367 0.35817108
-0.1064776 -0.016974691 0.35800916
-0.1054142 -0.016969115 0.35789156
-0.10435484 -0.016964087 0.35778552
-0.10329579 -0.01695901 0.35767844
-0.10223406 -0.016953386 0.35755983
-0.10116839 -0.01694699 0.35742491
-0.1001036 -0.016940609 0.35729036
-0.099053122 -0.016936544 0.35720462
-0.098005906 -0.016932957 0.35712898
-0.096962564 -0.016929973 0.35706601
-0.095919594 -0.016926987 0.35700306
-0.094876736 -0.016923958 0.35693917
-0.093837373 -0.016921494 0.35688719
-0.092802398 -0.016919775 0.35685092
-0.091769509 -0.0169184 0.35682195
-0.090744071 -0.016918387 0.35682166
-0.08971785 -0.016918223 0.3568182
-0.088690586 -0.016917858 0.35681051
-0.087665811 -0.016917964 0.35681275
-0.086645454 -0.016918935 0.35683322
-0.085624978 -0.016919905 0.35685369
-0.084604219 -0.016920844 0.35687348
-0.083587542 -0.01692263 0.35691118
-0.082574926 -0.016925294 0.35696736
-0.081562243 -0.016928012 0.35702467
-0.08054924 -0.016930733 0.35708204
-0.079535909 -0.016933452 0.35713941
-0.078526936 -0.016937183 0.35721809
-0.077518694 -0.016941171 0.35730222
-0.076510161 -0.016945204 0.35738724
-0.075504959 -0.016950093 0.35749036
-0.074501745 -0.016955569 0.35760587
-0.073497869 -0.016961046 0.35772139
-0.072493218 -0.016966498 0.35783637
-0.071487918 -0.016971953 0.3579514
-0.07048241 -0.016977513 0.3580687
-0.069478765 -0.016983699 0.35819915
-0.068477891 -0.016990757 0.35834798
-0.067476191 -0.01699782 0.35849696
-0.066473655 -0.017004889 0.35864606
-0.065470293 -0.017011967 0.35879532
-0.064467594 -0.017019445 0.35895306
-0.063466065 -0.017027481 0.35912254
-0.062464066 -0.017035654 0.35929492
-0.061461098 -0.017043835 0.35946745
-0.060457624 -0.017052149 0.35964283
-0.059455995 -0.017061286 0.35983551
-0.058453951 -0.017070623 0.36003244
-0.057450823 -0.017079974 0.36022967
-0.056447841 -0.017089713 0.36043507
-0.055443719 -0.017099464 0.36064073
-0.05443855 -0.017109258 0.36084729
-0.053432785 -0.017119242 0.36105785
-0.052426722 -0.017129524 0.36127469
-0.051419452 -0.017139817 0.3614918
-0.050410967 -0.017150123 0.36170915
-0.049401853 -0.017160645 0.36193106
-0.048392959 -0.017171696 0.36216414
-0.047382768 -0.017182762 0.36239755
-0.04637127 -0.017193843 0.36263123
-0.045358494 -0.017204946 0.36286542
-0.044345934 -0.017216656 0.36311239
-0.043331992 -0.017228384 0.36335972
-0.042316671 -0.017240126 0.36360738
-0.041299928 -0.01725187 0.36385506
-0.040282313 -0.017263848 0.3641077
-0.039263349 -0.017275874 0.36436132
-0.038242958 -0.017287914 0.36461526
-0.03722189 -0.017300315 0.36487681
-0.036202244 -0.017314117 0.36516792
-0.035180733 -0.017327823 0.365457
-0.034159694 -0.017342614 0.36576894
-0.033142041 -0.017360115 0.36613807
-0.032122657 -0.017377831 0.3665117
-0.031119628 -0.017405894 0.36710355
-0.030112475 -0.017433539 0.3676866
-0.029115401 -0.01746924 0.36843958
-0.028126966 -0.017513016 0.36936286
-0.0271516 -0.017568683 0.37053689
-0.026183518 -0.017633798 0.37191021
-0.025227427 -0.017712874 0.37357801
-0.024302963 -0.017822172 0.37588319
-0.023412827 -0.017967984 0.37895846
-0.022700677 -0.018271277 0.38535514
-0.11914121 -0.016415011 0.36854088
-0.1167731 -0.016233031 0.36445519
-0.11507087 -0.016141163 0.3623926
-0.11359134 -0.016079139 0.36100009
-0.11227217 -0.01603888 0.36009622
-0.11102731 -0.016008589 0.35941613
-0.10983891 -0.015985945 0.35890773
-0.10871647 -0.015972562 0.35860726
-0.10760894 -0.015961133 0.35835069
-0.10653073 -0.015953876 0.35818776
-0.10546064 -0.015947705 0.35804921
-0.1044008 -0.01594298 0.35794309
-0.1033411 -0.01593818 0.35783535
-0.10228195 -0.01593337 0.35772735
-0.10121597 -0.015927386 0.357593
-0.10015059 -0.015921375 0.35745806
-0.099092238 -0.01591637 0.35734567
-0.098045513 -0.015913147 0.35727331
-0.097001746 -0.015910339 0.35721028
-0.095957614 -0.015907412 0.35714456
-0.094914712 -0.015904628 0.35708204
-0.09387631 -0.015902545 0.35703528
-0.09283819 -0.015900463 0.35698855
-0.091801167 -0.015898526 0.35694507
-0.090773784 -0.015898233 0.35693848
-0.089746155 -0.015897891 0.35693079
-0.088718578 -0.015897548 0.3569231
-0.087693371 -0.01589763 0.35692492
-0.086672693 -0.015898541 0.3569454
-0.085651688 -0.015899414 0.35696501
-0.084630527 -0.015900282 0.35698447
-0.083612449 -0.015901756 0.35701755
-0.082597874 -0.015903939 0.35706657
-0.081584394 -0.015906392 0.35712165
-0.080571115 -0.015908947 0.35717902
-0.079557516 -0.015911503 0.35723642
-0.078547686 -0.015914891 0.35731247
-0.077539183 -0.01591864 0.35739666
-0.076530203 -0.015922392 0.35748088
-0.075521804 -0.015926367 0.35757011
-0.074517965 -0.015931426 0.35768372
-0.073513746 -0.015936546 0.35779867
-0.072508879 -0.015941668 0.35791367
-0.071503371 -0.015946794 0.35802877
-0.070498325 -0.015952177 0.35814959
-0.069494449 -0.015957983 0.35827997
-0.068489835 -0.015963797 0.35841048
-0.06748765 -0.01597036 0.35855785
-0.06648495 -0.015977005 0.35870701
-0.065482736 -0.015983975 0.3588635
-0.06448023 -0.015991097 0.35902342
-0.063476838 -0.015998228 0.35918349
-0.062474612 -0.016005892 0.3593556
-0.061471488 -0.016013581 0.35952821
-0.060468279 -0.016021511 0.35970622
-0.059465069 -0.016029714 0.35989043
-0.058462173 -0.016038295 0.36008307
-0.057459038 -0.016047118 0.36028117
-0.056455921 -0.016056271 0.36048666
-0.055451658 -0.016065434 0.36069238
-0.054446246 -0.016074607 0.36089832
-0.053440239 -0.016083956 0.36110821
-0.052434038 -0.016093615 0.36132511
-0.05142609 -0.016103119 0.36153847
-0.050416935 -0.016112629 0.36175197
-0.049408458 -0.01612276 0.36197942
-0.04839883 -0.016132943 0.36220807
-0.047387924 -0.016143139 0.36243698
-0.04637574 -0.016153349 0.36266619
-0.045363132 -0.016163874 0.36290252
-0.044350374 -0.016174844 0.36314878
-0.043336246 -0.016185828 0.36339539
-0.042320736 -0.016196825 0.36364231
-0.04130394 -0.016207876 0.36389041
-0.040285815 -0.016218964 0.36413935
-0.039266557 -0.016230177 0.36439109
-0.038246091 -0.016241491 0.36464512
-0.037224963 -0.016253153 0.36490694
-0.036205236 -0.016266121 0.36519811
-0.035181664 -0.016278083 0.36546665
-0.034159329 -0.016291372 0.36576504
-0.033141084 -0.016307518 0.36612752
-0.032121338 -0.016323958 0.36649662
-0.031109901 -0.016345881 0.36698881
-0.030103046 -0.016371833 0.36757147
-0.029103976 -0.016404059 0.36829501
-0.028111035 -0.016442303 0.36915365
-0.027126763 -0.016488817 0.37019795
-0.026151164 -0.016544614 0.37145066
-0.025194323 -0.016617533 0.37308779
-0.024254009 -0.016708318 0.37512606
-0.023344049 -0.016829431 0.37784523
-0.022515586 -0.017023979 0.38221312
-0.11722869 -0.015244987 0.36587712
-0.11536565 -0.015138479 0.36332095
-0.11380985 -0.01507071 0.36169451
-0.11242352 -0.015024343 0.3605817
-0.11112867 -0.014989449 0.35974425
-0.10993601 -0.014967814 0.35922503
-0.10878952 -0.014952114 0.35884821
-0.10767075 -0.01493996 0.35855654
-0.10658453 -0.014932132 0.35836866
-0.1055086 -0.014925607 0.35821208
-0.10444672 -0.01492096 0.35810053
-0.10338645 -0.014916454 0.35799238
-0.10232683 -0.01491195 0.35788429
-0.10126361 -0.014906826 0.35776132
-0.10019769 -0.014901195 0.35762617
-0.099132583 -0.01489557 0.35749117
-0.098085083 -0.0148925 0.35741749
-0.097039729 -0.014889695 0.35735017
-0.095994785 -0.014886891 0.35728291
-0.094954111 -0.014884699 0.35723028
-0.093915276 -0.014882749 0.35718349
-0.092876233 -0.014880722 0.35713485
-0.091835469 -0.014878372 0.35707843
-0.090804361 -0.014877551 0.35705873
-0.089775406 -0.014877067 0.35704711
-0.088746578 -0.014876594 0.35703576
-0.087720931 -0.01487665 0.3570371
-0.086699687 -0.014877461 0.35705656
-0.085678324 -0.014878271 0.35707602
-0.084656857 -0.014879083 0.35709551
-0.083637387 -0.014880271 0.357124
-0.082622498 -0.014882313 0.35717303
-0.081607342 -0.014884357 0.35722208
-0.080593005 -0.014886606 0.35727605
-0.07957913 -0.014888999 0.35733348
-0.078568451 -0.014892058 0.35740691
-0.07755968 -0.014895568 0.35749114
-0.076550327 -0.014899057 0.35757488
-0.075540431 -0.014902534 0.35765833
-0.074534789 -0.014906958 0.35776448
-0.073529631 -0.014911603 0.35787597
-0.072524555 -0.014916398 0.35799104
-0.071518838 -0.014921196 0.3581062
-0.070514247 -0.014926374 0.35823047
-0.069510154 -0.01493181 0.35836095
-0.068505317 -0.014937249 0.35849148
-0.067499749 -0.014942694 0.35862213
-0.066497363 -0.01494902 0.35877398
-0.065495566 -0.014955681 0.35893384
-0.064492874 -0.014962347 0.35909382
-0.063489288 -0.014969019 0.35925394
-0.062485173 -0.014975785 0.35941634
-0.061481878 -0.014982979 0.35958898
-0.060478941 -0.014990507 0.35976964
-0.05947556 -0.014998185 0.35995391
-0.058471147 -0.01500587 0.36013836
-0.057467256 -0.015013968 0.3603327
-0.056463998 -0.015022532 0.36053824
-0.055459391 -0.01503105 0.36074269
-0.054453429 -0.015039518 0.36094591
-0.053447053 -0.015048199 0.36115426
-0.052439999 -0.015057029 0.36136618
-0.051431924 -0.015065917 0.36157948
-0.050423611 -0.0150751 0.36179987
-0.049415123 -0.015084617 0.36202827
-0.048405126 -0.015094072 0.36225519
-0.047393836 -0.01510353 0.36248219
-0.046381395 -0.015113038 0.36271039
-0.045368049 -0.015122683 0.36294186
-0.044354595 -0.015132744 0.36318332
-0.04334037 -0.015143021 0.36342996
-0.042324785 -0.015153318 0.36367708
-0.041307949 -0.015163678 0.36392573
-0.040289726 -0.015174053 0.36417472
-0.039270107 -0.015184442 0.36442405
-0.038249221 -0.015194896 0.36467496
-0.03722804 -0.015205818 0.3649371
-0.036206614 -0.015217273 0.36521199
-0.035182662 -0.015228317 0.36547706
-0.03416083 -0.015240986 0.3657811
-0.03314013 -0.01525498 0.36611697
-0.032120273 -0.015270293 0.36648446
-0.031104499 -0.015288652 0.36692509
-0.030093623 -0.01531079 0.36745641
-0.029092174 -0.015339511 0.36814567
-0.028095488 -0.015373002 0.36894947
-0.027106216 -0.015413338 0.36991754
-0.026127184 -0.015463027 0.37111005
-0.02516273 -0.01552594 0.37261996
-0.024209708 -0.015601812 0.37444088
-0.023283076 -0.01570254 0.37685832
-0.022413047 -0.015853131 0.38047248
-0.11788868 -0.014273518 0.367937
-0.11566528 -0.014131052 0.36426458
-0.11402859 -0.014058319 0.36238968
-0.11257342 -0.014006832 0.36106247
-0.11127616 -0.013974216 0.36022171
-0.11003632 -0.013948266 0.3595528
-0.10886015 -0.013929971 0.35908121
-0.10774183 -0.013918801 0.35879326
-0.10663817 -0.013909327 0.35854903
-0.10556193 -0.013903278 0.3583931
-0.10449259 -0.013898029 0.3582578
-0.10343184 -0.013893829 0.35814953
-0.10237173 -0.013889632 0.35804135
-0.1013113 -0.013885306 0.35792983
-0.10024486 -0.013880057 0.35779452
-0.099180296 -0.013874964 0.35766324
-0.098123103 -0.013870806 0.35755605
-0.097077347 -0.013868193 0.35748869
-0.096033096 -0.013865742 0.35742551
-0.094993554 -0.013863924 0.35737866
-0.093952283 -0.013861812 0.35732421
-0.092910476 -0.013859574 0.35726652
-0.091870122 -0.013857504 0.35721317
-0.090836585 -0.013856428 0.35718542
-0.089807257 -0.013855977 0.3571738
-0.088778004 -0.013855526 0.35716218
-0.087748379 -0.013855007 0.3571488
-0.086726688 -0.013855743 0.35716778
-0.085704982 -0.013856494 0.35718712
-0.084683195 -0.01385725 0.35720661
-0.083662331 -0.013858177 0.35723051
-0.082647145 -0.01386008 0.35727957
-0.081631683 -0.013861984 0.35732865
-0.080615945 -0.013863889 0.35737774
-0.079600766 -0.013865939 0.35743061
-0.078589223 -0.013868687 0.35750142
-0.077580094 -0.013871937 0.35758522
-0.076570407 -0.013875174 0.35766867
-0.075560257 -0.013878414 0.35775217
-0.074553087 -0.013882299 0.35785231
-0.0735467 -0.01388644 0.35795906
-0.072540231 -0.013890683 0.35806844
-0.071534298 -0.013895151 0.35818362
-0.070530184 -0.013900109 0.35831141
-0.06952586 -0.013905171 0.35844192
-0.068520293 -0.013910135 0.35856986
-0.067513868 -0.013915073 0.35869715
-0.066510282 -0.013920757 0.35884368
-0.065508328 -0.013926968 0.35900378
-0.064505488 -0.013933185 0.35916403
-0.063501738 -0.013939406 0.3593244
-0.062497068 -0.013945627 0.35948476
-0.061492275 -0.013952029 0.35964978
-0.060489602 -0.013959139 0.35983306
-0.059485663 -0.013966199 0.36001506
-0.058480315 -0.013973173 0.36019483
-0.057475183 -0.01398045 0.36038241
-0.056470212 -0.013988034 0.36057791
-0.055465277 -0.013995911 0.36078095
-0.054459583 -0.014003892 0.36098671
-0.053453572 -0.014012101 0.36119831
-0.052446447 -0.014020338 0.36141062
-0.05143841 -0.014028657 0.36162508
-0.050429758 -0.014037149 0.36184397
-0.049420882 -0.014045935 0.36207047
-0.048410747 -0.014054733 0.36229727
-0.047399361 -0.014063546 0.36252445
-0.046387188 -0.014072517 0.36275569
-0.045373719 -0.0140815 0.36298722
-0.044358958 -0.014090492 0.36321905
-0.043344494 -0.014100016 0.36346453
-0.04232889 -0.01410963 0.36371237
-0.041311961 -0.014119278 0.36396107
-0.040293641 -0.014128938 0.3642101
-0.039273925 -0.014138613 0.36445948
-0.038252816 -0.014148301 0.36470923
-0.037230469 -0.014158065 0.36496091
-0.036207572 -0.014168181 0.36522165
-0.035184205 -0.014178709 0.36549306
-0.034162328 -0.014190505 0.36579713
-0.033139177 -0.014202503 0.36610642
-0.032119203 -0.014216698 0.3664723
-0.031099921 -0.014232168 0.36687109
-0.030088315 -0.014252359 0.36739159
-0.029080383 -0.014275825 0.36799645
-0.028080935 -0.014305382 0.36875838
-0.027086981 -0.014340167 0.36965504
-0.026106494 -0.01438521 0.37081617
-0.025131071 -0.014436998 0.37215114
-0.024167517 -0.014500511 0.37378833
-0.023231454 -0.014587192 0.37602276
-0.022328177 -0.014703922 0.37903178
-0.021562923 -0.014928177 0.38481253
-0.11613606 -0.013137563 0.36574721
-0.11432008 -0.013050238 0.36331609
-0.11278845 -0.01299406 0.36175212
-0.11142296 -0.012956159 0.36069694
-0.11013794 -0.012926988 0.35988483
-0.10895682 -0.012909576 0.35940009
-0.10781132 -0.012896092 0.35902467
-0.10669138 -0.012885433 0.35872793
-0.10561299 -0.012879633 0.35856649
-0.10453722 -0.012874042 0.35841081
-0.10347611 -0.012870163 0.35830283
-0.10241637 -0.012866378 0.35819745
-0.10135674 -0.012862531 0.35809034
-0.100293 -0.012858076 0.35796633
-0.099231541 -0.012853826 0.35784802
-0.09817078 -0.012849579 0.35772976
-0.097114988 -0.012845898 0.3576273
-0.096072346 -0.012843897 0.35757157
-0.095029473 -0.012841821 0.35751379
-0.093986943 -0.012839746 0.35745603
-0.092944741 -0.012837672 0.35739827
-0.091904804 -0.012835867 0.35734802
-0.090868816 -0.012834579 0.35731217
-0.089839131 -0.012834162 0.35730055
-0.088809155 -0.012833693 0.35728753
-0.087779082 -0.012833199 0.35727376
-0.086753927 -0.012833421 0.35727996
-0.085731819 -0.012834105 0.35729897
-0.084709592 -0.012834786 0.35731795
-0.083687335 -0.012835481 0.3573373
-0.082671806 -0.012837237 0.35738617
-0.081656046 -0.012839001 0.35743529
-0.080640003 -0.012840765 0.3574844
-0.079623669 -0.012842527 0.35753345
-0.078609914 -0.012844757 0.35759553
-0.077600442 -0.012847755 0.35767901
-0.076590501 -0.012850755 0.35776252
-0.075580083 -0.012853756 0.35784605
-0.074571386 -0.012857135 0.35794014
-0.07356476 -0.012860972 0.35804698
-0.072557539 -0.012864811 0.35815385
-0.071549878 -0.012868684 0.35826164
-0.07054536 -0.012873241 0.35838851
-0.069540121 -0.0128778 0.35851544
-0.068534173 -0.012882363 0.35864249
-0.067527875 -0.012886999 0.35877156
-0.066523172 -0.012892088 0.35891321
-0.065521032 -0.012897841 0.35907337
-0.06451799 -0.012903599 0.35923368
-0.063514054 -0.012909361 0.3593941
-0.062509224 -0.012915129 0.35955468
-0.061503045 -0.012920808 0.35971278
-0.060498066 -0.012926938 0.35988343
-0.059493382 -0.012933344 0.36006176
-0.058488291 -0.012939887 0.36024395
-0.057483777 -0.012946797 0.36043629
-0.056478187 -0.012953713 0.36062884
-0.055471636 -0.012960662 0.36082232
-0.054466669 -0.012968254 0.36103368
-0.053460877 -0.012975941 0.36124769
-0.052453898 -0.012983639 0.36146197
-0.051445831 -0.012991372 0.36167726
-0.050436724 -0.012999156 0.36189395
-0.049426623 -0.013007007 0.36211252
-0.048416372 -0.013015154 0.36233935
-0.04740528 -0.013023429 0.36256972
-0.046392981 -0.013031737 0.36280102
-0.045379389 -0.013040055 0.36303258
-0.044364505 -0.013048384 0.36326447
-0.043348636 -0.013056818 0.36349928
-0.042333033 -0.013065751 0.36374795
-0.041316036 -0.013074694 0.36399695
-0.040297646 -0.013083652 0.36424631
-0.039277859 -0.01309262 0.36449599
-0.038256671 -0.0131016 0.364746
-0.037234254 -0.013110653 0.36499804
-0.036210835 -0.013119868 0.36525458
-0.035186734 -0.013129379 0.36551934
-0.034163184 -0.013139687 0.36580631
-0.03313956 -0.013150619 0.36611068
-0.032118343 -0.013163256 0.36646247
-0.03109611 -0.013176317 0.36682612
-0.030083053 -0.013194321 0.36732733
-0.029071754 -0.013214434 0.36788726
-0.028066399 -0.013238868 0.3685675
-0.027071437 -0.013270312 0.36944291
-0.026084794 -0.013308569 0.37050796
-0.025101168 -0.013351684 0.3717083
-0.024136711 -0.013409284 0.37331185
-0.023190705 -0.013482967 0.3753632
-0.022269057 -0.013578693 0.37802818
-0.021407206 -0.013722568 0.38203362
-0.1167293 -0.012148299 0.36761552
-0.11462419 -0.012038158 0.36428258
-0.1130043 -0.011977414 0.36244443
-0.11156926 -0.011935316 0.36117053
-0.11027315 -0.011907429 0.36032665
-0.10905729 -0.011887762 0.3597315
-0.10788091 -0.011872062 0.35925642
-0.10675963 -0.011862181 0.35895741
-0.10566412 -0.011854999 0.35874006
-0.10458782 -0.01184985 0.35858428
-0.10351917 -0.011845477 0.35845193
-0.10245897 -0.011841992 0.35834646
-0.10139939 -0.011838507 0.35824102
-0.10034063 -0.01183505 0.35813639
-0.0992788 -0.011831152 0.35801846
-0.098217666 -0.011827258 0.35790062
-0.097157106 -0.011823351 0.35778239
-0.096107952 -0.011820764 0.3577041
-0.095064543 -0.011818835 0.35764572
-0.094021611 -0.011816924 0.3575879
-0.092979029 -0.011815014 0.35753012
-0.091939509 -0.011813456 0.35748297
-0.090902776 -0.011812226 0.35744572
-0.089870811 -0.011811593 0.35742655
-0.088840291 -0.011811137 0.35741279
-0.087809846 -0.011810681 0.35739899
-0.086781181 -0.011810456 0.35739219
-0.085758746 -0.011811085 0.35741121
-0.084736206 -0.011811714 0.35743022
-0.083713643 -0.011812354 0.35744962
-0.082695775 -0.011813683 0.35748979
-0.081679627 -0.011815293 0.35753852
-0.080663197 -0.011816901 0.35758722
-0.079646491 -0.011818511 0.35763595
-0.078631021 -0.01182035 0.35769156
-0.077620648 -0.011823012 0.35777214
-0.076610468 -0.011825777 0.3578558
-0.075599812 -0.011828542 0.35793945
-0.074588947 -0.011831351 0.35802445
-0.073581956 -0.011834861 0.35813066
-0.07257437 -0.011838373 0.35823694
-0.071567066 -0.011842033 0.35834771
-0.070560545 -0.011845931 0.35846567
-0.06955421 -0.011849976 0.35858807
-0.068548061 -0.011854176 0.35871518
-0.06754189 -0.0118585 0.35884601
-0.066536061 -0.011863018 0.35898274
-0.065533727 -0.011868313 0.35914296
-0.064530499 -0.011873612 0.35930333
-0.063525967 -0.01187884 0.35946152
-0.062519483 -0.011883869 0.35961369
-0.061514113 -0.011889283 0.35977751
-0.060508963 -0.011894925 0.35994825
-0.059502948 -0.01190059 0.36011967
-0.05849766 -0.011906603 0.36030164
-0.05749324 -0.011913014 0.36049563
-0.056487743 -0.011919431 0.36068985
-0.055481661 -0.011925965 0.36088753
-0.054475486 -0.011932725 0.36109212
-0.053468473 -0.011939562 0.36129901
-0.052461356 -0.011946646 0.36151335
-0.051453266 -0.01195379 0.36172953
-0.050444018 -0.011960953 0.36194631
-0.049433507 -0.011968112 0.36216295
-0.048422072 -0.011975351 0.36238199
-0.047410846 -0.011982961 0.36261228
-0.046398338 -0.011990582 0.36284289
-0.045384541 -0.011998212 0.3630738
-0.044369452 -0.012005852 0.36330497
-0.04335374 -0.012013687 0.36354208
-0.042337287 -0.012021699 0.36378452
-0.041320194 -0.012029929 0.36403358
-0.040301707 -0.012038171 0.364283
-0.039281819 -0.012046425 0.36453274
-0.038260631 -0.012054719 0.36478373
-0.037238125 -0.012063055 0.36503598
-0.036214463 -0.012071488 0.36529118
-0.035190731 -0.0120804 0.36556086
-0.034165964 -0.012089495 0.36583605
-0.033140119 -0.012098773 0.36611685
-0.032117885 -0.012110022 0.36645722
-0.031095635 -0.012122027 0.36682051
-0.030077789 -0.012136652 0.36726308
-0.029063961 -0.01215402 0.36778864
-0.028055973 -0.012175234 0.36843058
-0.027055912 -0.012201685 0.36923105
-0.026062986 -0.012233647 0.37019819
-0.025079099 -0.012272751 0.37138152
-0.024106393 -0.012321046 0.37284294
-0.023150099 -0.012382612 0.37470597
-0.022213437 -0.012461196 0.37708399
-0.021327432 -0.012577717 0.38060999
-0.11793851 -0.011206827 0.37142366
-0.11503237 -0.011030501 0.36557975
-0.1132803 -0.010962609 0.36332965
-0.11177056 -0.010917125 0.36182219
-0.11041637 -0.010886121 0.36079463
-0.1091554 -0.010863808 0.36005512
-0.10797757 -0.010849421 0.35957828
-0.10682796 -0.010837619 0.35918716
-0.10571528 -0.01082937 0.35891378
