# .PCD v0.7 - Point Cloud Data file format
VERSION 0.7
FIELDS x y z
SIZE 4 4 4
TYPE F F F
COUNT 1 1 1
WIDTH 1286
HEIGHT 1
VIEWPOINT 0 0 0 1 0 0 0
POINTS 1286
DATA ascii
-0.037457384 -0.026168857 0.35712543
-0.036336787 -0.026101073 0.3562004
-0.035238307 -0.026045706 0.35544479
-0.034166481 -0.026007323 0.35492098
-0.033104077 -0.02597397 0.35446581
-0.032054003 -0.025948478 0.35411793
-0.031011447 -0.025927603 0.35383305
-0.02997648 -0.025911873 0.35361838
-0.028946146 -0.025899183 0.3534452
-0.027926516 -0.025895497 0.3533949
-0.026910245 -0.025894765 0.35338491
-0.025900086 -0.025900086 0.35345754
-0.024894591 -0.025910698 0.35360235
-0.023891436 -0.025924748 0.3537941
-0.022889601 -0.025941549 0.35402337
-0.021889579 -0.025962058 0.35430327
-0.020892609 -0.025988366 0.3546623
-0.01990691 -0.026032113 0.3552593
-0.01894231 -0.026109669 0.3563177
-0.017934794 -0.026133558 0.35664371
-0.016912466 -0.026137447 0.35669678
-0.015890747 -0.026142841 0.3567704
-0.014855207 -0.026124675 0.35652247
-0.013892492 -0.026241375 0.35811508
-0.012905993 -0.026328225 0.35930032
-0.01189259 -0.026370525 0.35987759
-0.010878275 -0.026418669 0.36053461
-0.0099803992 -0.026789492 0.36559522
-0.044312488 -0.025544846 0.36283854
-0.042874254 -0.025311306 0.35952136
-0.041630272 -0.025183745 0.35770947
-0.040454607 -0.025092099 0.35640773
-0.039309051 -0.025014851 0.3553105
-0.038186435 -0.02494847 0.35436764
-0.037092865 -0.02489795 0.35365003
-0.036010116 -0.024852052 0.35299811
-0.034949958 -0.024819534 0.35253623
-0.033895969 -0.02478959 0.35211089
-0.032851096 -0.024764674 0.35175699
-0.031815425 -0.02474533 0.35148224
-0.030785581 -0.024729401 0.35125598
-0.029757185 -0.024713594 0.35103145
-0.028743349 -0.024709195 0.35096896
-0.027733516 -0.024708042 0.3509526
-0.02672378 -0.024706891 0.35093623
-0.025717752 -0.024709214 0.35096923
-0.024717204 -0.024717204 0.35108274
-0.02371889 -0.024728203 0.35123897
-0.02272056 -0.024740165 0.35140887
-0.021726497 -0.024758101 0.35166362
-0.020734707 -0.024780504 0.35198185
-0.019741677 -0.024803646 0.35231054
-0.018741423 -0.024819724 0.35253891
-0.017730851 -0.024823193 0.35258818
-0.016718386 -0.024824271 0.3526035
-0.015710495 -0.024832718 0.35272348
-0.014705891 -0.024847886 0.35293892
-0.013709293 -0.024879828 0.35339263
-0.012722169 -0.024935452 0.35418272
-0.011842102 -0.025228826 0.3583498
-0.010812898 -0.025230095 0.35836783
-0.0097935619 -0.025257081 0.35875112
-0.0087917056 -0.025340799 0.35994026
-0.046219587 -0.024408096 0.36144504
-0.044795997 -0.024200136 0.35836548
-0.043525364 -0.024066966 0.35639343
-0.042332184 -0.023971235 0.35497582
-0.041184224 -0.02389702 0.3538768
-0.040062681 -0.023834759 0.35295483
-0.038962185 -0.023782112 0.35217521
-0.037878595 -0.023737254 0.35151091
-0.03681007 -0.023699634 0.35095382
-0.035753649 -0.023667907 0.35048401
-0.034705386 -0.023639899 0.35006925
-0.033665862 -0.023616351 0.34972054
-0.032636654 -0.023598811 0.34946081
-0.031613342 -0.023584558 0.34924972
-0.030591907 -0.023570813 0.3490462
-0.029579468 -0.023563305 0.34893501
-0.028568331 -0.023556342 0.34883192
-0.027558265 -0.02354979 0.34873489
-0.026559578 -0.023552833 0.34877995
-0.025562303 -0.023557415 0.34884781
-0.024564639 -0.023562001 0.3489157
-0.023568286 -0.023568286 0.34900877
-0.022575341 -0.02357869 0.34916285
-0.021581938 -0.023589561 0.34932381
-0.020587657 -0.023600483 0.34948558
-0.019607117 -0.02362909 0.34990919
-0.018657388 -0.023699924 0.35095814
-0.017659383 -0.023714028 0.35116699
-0.016583042 -0.023618273 0.349749
-0.015585808 -0.023630096 0.34992409
-0.014597691 -0.023658326 0.35034212
-0.013633193 -0.023731854 0.35143095
-0.012667809 -0.023815481 0.35266933
-0.011664227 -0.023835594 0.35296717
-0.010653213 -0.023842905 0.35307544
-0.009656583 -0.023887338 0.35373342
-0.0086768568 -0.023988957 0.35523823
-0.0077377609 -0.024244985 0.35902959
-0.0068254783 -0.024676729 0.36542305
-0.048208144 -0.023326522 0.36078101
-0.046791475 -0.023138642 0.35787517
-0.045496069 -0.02300363 0.35578701
-0.044268146 -0.022897316 0.3541427
-0.043097973 -0.022816574 0.35289389
-0.041966632 -0.022752993 0.3519105
-0.040853329 -0.022696294 0.35103357
-0.039764296 -0.022650547 0.35032603
-0.038687386 -0.022609511 0.34969133
-0.037619665 -0.022571798 0.34910804
-0.036569674 -0.02254295 0.34866184
-0.035527829 -0.022517636 0.34827036
-0.034493729 -0.022495911 0.34793431
-0.033467621 -0.022478253 0.3476612
-0.032448906 -0.022464627 0.34745046
-0.031435929 -0.022454236 0.34728974
-0.03042553 -0.022445062 0.34714788
-0.029417552 -0.022437116 0.34702498
-0.028414149 -0.022432223 0.34694928
-0.027413702 -0.022429392 0.3469055
-0.026417756 -0.02243017 0.34691754
-0.025423633 -0.022432618 0.34695539
-0.024431847 -0.02243741 0.34702954
-0.023439677 -0.022442244 0.34710428
-0.022443229 -0.022443229 0.34711951
-0.021452742 -0.022450544 0.34723264
-0.020463565 -0.02246001 0.34737906
-0.019469995 -0.022465378 0.34746209
-0.018469518 -0.022462927 0.34742418
-0.017471272 -0.022463065 0.3474263
-0.016477667 -0.022469547 0.34752655
-0.015488788 -0.022483723 0.34774584
-0.014509106 -0.022514131 0.34821612
-0.013548343 -0.022580571 0.34924373
-0.012633228 -0.022739809 0.35170659
-0.011637913 -0.022769831 0.35217091
-0.010622862 -0.022763275 0.35206953
-0.0096185934 -0.022780878 0.3523418
-0.0086234119 -0.022826677 0.35305014
-0.0076354663 -0.022906398 0.35428315
-0.0066978028 -0.023184702 0.35858756
-0.0056997808 -0.023317285 0.36063814
-0.050389476 -0.022337602 0.36155495
-0.048877284 -0.022123404 0.35808793
-0.047506299 -0.021965278 0.35552853
-0.046248861 -0.021853857 0.35372508
-0.045065578 -0.021773256 0.35242048
-0.043899648 -0.021697529 0.35119474
-0.042770602 -0.021636894 0.35021332
-0.041661728 -0.021583786 0.34935373
-0.040576436 -0.021540578 0.34865436
-0.039505713 -0.021503108 0.34804788
-0.038449023 -0.021471532 0.3475368
-0.037396532 -0.021440679 0.3470374
-0.036353819 -0.021413894 0.34660387
-0.03533015 -0.021397134 0.34633258
-0.034310784 -0.021382084 0.34608898
-0.033293303 -0.021367343 0.34585041
-0.032283247 -0.021356609 0.34567666
-0.031277727 -0.021348288 0.34554198
-0.030273346 -0.021340229 0.34541151
-0.029270858 -0.021332998 0.34529448
-0.028272234 -0.021328177 0.34521645
-0.027279222 -0.021327393 0.34520376
-0.02628844 -0.021328358 0.34521937
-0.025298731 -0.021330304 0.34525087
-0.024309037 -0.02133242 0.34528515
-0.023317512 -0.021333043 0.34529522
-0.022326099 -0.021333829 0.34530792
-0.021338992 -0.021338992 0.34539151
-0.020374224 -0.021368088 0.34586245
-0.019395532 -0.021384817 0.34613323
-0.018396519 -0.021379737 0.34605101
-0.017398933 -0.021375833 0.3459878
-0.016413696 -0.021387542 0.34617734
-0.015434168 -0.021408686 0.34651956
-0.014457086 -0.021436369 0.34696764
-0.013477125 -0.021463569 0.34740791
-0.012481934 -0.021468928 0.34749463
-0.011488689 -0.021478854 0.3476553
-0.01057253 -0.021648513 0.3504014
-0.0095775593 -0.021675529 0.35083866
-0.0085928459 -0.021734847 0.35179877
-0.0076009175 -0.021789297 0.35268012
-0.0066114301 -0.021868575 0.35396332
-0.005624711 -0.021987505 0.35588831
-0.0046439641 -0.022187829 0.35913071
-0.0036518262 -0.022432646 0.36309332
-0.05283308 -0.021447092 0.36407492
-0.051044654 -0.021139706 0.35885689
-0.049623862 -0.020975035 0.35606152
-0.048304103 -0.020847034 0.35388863
-0.047077063 -0.020754404 0.3523162
-0.045887869 -0.020674754 0.3509641
-0.044730272 -0.02060608 0.34979832
-0.043609526 -0.020551614 0.34887376
-0.042505756 -0.020502776 0.34804469
-0.041419223 -0.020460099 0.34732023
-0.040346351 -0.020422228 0.34667733
-0.039283339 -0.020387555 0.34608877
-0.038237624 -0.020360293 0.34562597
-0.037202202 -0.020337205 0.34523404
-0.03617388 -0.020316837 0.3448883
-0.035149977 -0.020297874 0.34456638
-0.034137577 -0.020284647 0.34434184
-0.033129867 -0.020273501 0.34415263
-0.03212738 -0.020264963 0.3440077
-0.031127209 -0.020257389 0.34387913
-0.030128852 -0.020250538 0.34376284
-0.029133795 -0.020245519 0.34367761
-0.028143926 -0.020243876 0.34364974
-0.027155807 -0.020243419 0.343642
-0.026167735 -0.020242965 0.34363428
-0.025180517 -0.02024316 0.34363759
-0.024195468 -0.020245187 0.34367201
-0.023210119 -0.020247126 0.34370491
-0.0222225 -0.020247167 0.34370559
-0.021231892 -0.020244362 0.34365797
-0.020235883 -0.020235883 0.34351406
-0.019242361 -0.020229148 0.34339973
-0.018257428 -0.020231204 0.34343463
-0.017279025 -0.020241143 0.34360334
-0.016317595 -0.020273376 0.34415051
-0.015367175 -0.020324327 0.34501544
-0.014423605 -0.020391993 0.34616411
-0.013443289 -0.020413885 0.34653571
-0.012444454 -0.020408906 0.34645119
-0.011451712 -0.02041392 0.34653634
-0.010470421 -0.020442251 0.34701726
-0.0094961058 -0.020491596 0.34785491
-0.0085579613 -0.020639788 0.35037056
-0.0075731617 -0.020699974 0.35139224
-0.0065813311 -0.020756505 0.35235187
-0.005587657 -0.020826722 0.35354382
-0.004593893 -0.020927735 0.35525858
-0.0035944835 -0.021053404 0.35739186
-0.0025909001 -0.021245381 0.36065078
-0.0015833286 -0.021638824 0.36732966
-0.053388033 -0.020214885 0.36075544
-0.051813509 -0.020007197 0.35704902
-0.050433755 -0.019867843 0.3545621
-0.049136836 -0.019756047 0.35256699
-0.047907323 -0.019667216 0.35098171
-0.04672822 -0.019595705 0.34970552
-0.045577735 -0.019533314 0.3485921
-0.044458732 -0.019481916 0.34767485
-0.043355748 -0.019435335 0.34684357
-0.042274419 -0.019396497 0.34615046
-0.041202545 -0.019360233 0.34550327
-0.040145855 -0.019329486 0.34495458
-0.039098639 -0.01930186 0.34446156
-0.038058914 -0.019276593 0.34401065
-0.037023265 -0.019252097 0.34357348
-0.036003392 -0.019234689 0.34326282
-0.034987047 -0.019218238 0.34296924
-0.033981096 -0.019206706 0.34276345
-0.032979473 -0.019197008 0.34259036
-0.03198152 -0.019188913 0.34244588
-0.030985944 -0.019181775 0.34231851
-0.029994139 -0.01917658 0.34222582
-0.029007996 -0.019174777 0.34219363
-0.028022038 -0.019172974 0.34216145
-0.027036298 -0.019171193 0.34212968
-0.026051536 -0.019169997 0.34210834
-0.025067417 -0.019169202 0.34209412
-0.024083378 -0.019168403 0.34207988
-0.023105334 -0.019172512 0.34215319
-0.022132294 -0.019181322 0.34231043
-0.021152448 -0.019184779 0.34237212
-0.020164635 -0.019180994 0.34230459
-0.019176938 -0.019176938 0.3422322
-0.018194152 -0.019177619 0.34224436
-0.017218931 -0.01918681 0.34240836
-0.016247895 -0.019202057 0.34268048
-0.015287206 -0.019232292 0.34322003
-0.014319199 -0.019256854 0.34365839
-0.013379079 -0.019325336 0.34488052
-0.012414993 -0.019367388 0.34563097
-0.01141976 -0.019363942 0.34556946
-0.010437844 -0.019384569 0.34593758
-0.0094611188 -0.019420192 0.34657329
-0.0084881308 -0.01947277 0.34751162
-0.0075516608 -0.019634318 0.35039461
-0.006554679 -0.019664036 0.35092497
-0.0055617541 -0.019718947 0.3519049
-0.0045658099 -0.019785177 0.35308683
-0.0035654539 -0.019864671 0.35450551
-0.0025608165 -0.019974368 0.35646316
-0.0015476265 -0.020119144 0.35904682
-0.00052232796 -0.020370789 0.3635377
-0.056138135 -0.019412253 0.36515766
-0.054130293 -0.019074485 0.35880402
-0.052650761 -0.018913381 0.35577354
-0.051289383 -0.01878918 0.35343724
-0.050000027 -0.018686878 0.35151288
-0.048782632 -0.018607808 0.3500255
-0.047602896 -0.018540075 0.3487514
-0.046453524 -0.01848151 0.34764975
-0.045330703 -0.018431164 0.34670272
-0.044227101 -0.018386548 0.34586346
-0.043143138 -0.018348232 0.34514269
-0.04207208 -0.018313728 0.34449369
-0.041012745 -0.01828279 0.34391171
-0.039962117 -0.018254301 0.3433758
-0.038927961 -0.018232085 0.34295788
-0.037896715 -0.018210109 0.34254453
-0.036870148 -0.018189274 0.3421526
-0.035849977 -0.018170536 0.34180012
-0.034840077 -0.018156096 0.34152851
-0.033839326 -0.018145725 0.34133342
-0.032840144 -0.018135602 0.34114298
-0.031844359 -0.018126789 0.34097722
-0.030856621 -0.018122142 0.34088981
-0.029870536 -0.018118195 0.34081554
-0.028887352 -0.018115798 0.34077045
-0.02790598 -0.018114408 0.34074432
-0.026924882 -0.018113103 0.34071976
-0.025943166 -0.018111266 0.34068522
-0.02496065 -0.018108707 0.34063709
-0.023978414 -0.01810615 0.34058896
-0.022999471 -0.018105967 0.34058553
-0.022028096 -0.018111991 0.34069884
-0.021094369 -0.018150968 0.34143203
-0.020099962 -0.01813899 0.34120673
-0.019108903 -0.018128958 0.34101802
-0.018123707 -0.018123707 0.34091923
-0.017154174 -0.018134413 0.34112063
-0.016195329 -0.0181584 0.34157184
-0.015226375 -0.018173417 0.3418543
-0.014246005 -0.018175937 0.34190172
-0.013276173 -0.018193275 0.34222785
-0.012314744 -0.018225821 0.34284008
-0.011366967 -0.018285992 0.34397191
-0.010406227 -0.01833478 0.34488967
-0.0094382819 -0.018379811 0.34573674
-0.0084620854 -0.018417479 0.34644529
-0.007487365 -0.018468833 0.3474113
-0.0065111457 -0.018531721 0.34859428
-0.0055328552 -0.018610513 0.35007638
-0.0045416001 -0.018671023 0.35121462
-0.0035453627 -0.018739775 0.35250789
-0.0025424263 -0.018813955 0.35390326
-0.0015332205 -0.018909719 0.35570467
-0.00051425578 -0.019027464 0.35791951
0.00051966251 -0.019227512 0.36168256
-0.056726858 -0.018215047 0.36221668
-0.054988004 -0.01798673 0.35767648
-0.053516436 -0.017838812 0.35473505
-0.052174978 -0.017729361 0.35255855
-0.050910186 -0.017642144 0.35082418
-0.049687412 -0.017566256 0.34931511
-0.048506767 -0.017502442 0.34804612
-0.047349095 -0.017444404 0.346892
-0.046224032 -0.017396141 0.34593228
-0.045116402 -0.017352462 0.34506369
-0.044032939 -0.017316325 0.34434506
-0.042959701 -0.017282639 0.3436752
-0.041899681 -0.01725281 0.34308204
-0.040848326 -0.017225197 0.34253296
-0.039809003 -0.01720142 0.34206015
-0.038772792 -0.01717782 0.34159082
-0.03774647 -0.017157488 0.34118649
-0.036727875 -0.017139675 0.34083229
-0.035714738 -0.017123505 0.34051076
-0.034706581 -0.017108878 0.34021989
-0.033709232 -0.017098885 0.34002116
-0.032717947 -0.017091464 0.33987361
-0.031727523 -0.017084051 0.33972618
-0.030741584 -0.017078657 0.33961892
-0.029757969 -0.017074244 0.33953118
-0.028775245 -0.017070061 0.33944798
-0.027796594 -0.017068084 0.33940867
-0.026818667 -0.017066425 0.33937567
-0.025841894 -0.0170654 0.33935532
-0.024871543 -0.017068706 0.33942103
-0.023896486 -0.017068919 0.33942527
-0.022912016 -0.017062141 0.33929047
-0.021927698 -0.017054876 0.33914602
-0.020940639 -0.017044706 0.33894378
-0.019961359 -0.017040184 0.33885387
-0.018999662 -0.01705098 0.33906853
-0.018043403 -0.017068084 0.33940867
-0.017100958 -0.017100958 0.34006241
-0.016157821 -0.017137084 0.34078076
-0.015196141 -0.017156934 0.3411755
-0.014215164 -0.017156232 0.34116155
-0.013241789 -0.017165283 0.34134153
-0.012274274 -0.017183984 0.3417134
-0.011308277 -0.017208247 0.3421959
-0.010350434 -0.017250722 0.34304056
-0.0094202012 -0.017353002 0.34507445
-0.0084408289 -0.017378177 0.34557506
-0.007463668 -0.017415226 0.34631178
-0.0064843353 -0.017457826 0.34715891
-0.0055047483 -0.017515108 0.34829801
-0.0045183669 -0.017571427 0.34941792
-0.0035268655 -0.017634328 0.35066876
-0.0025282786 -0.017697951 0.35193393
-0.0015231791 -0.017770423 0.35337508
-0.00051004143 -0.01785145 0.35498634
0.00051322114 -0.017962739 0.3571994
0.0015538208 -0.018127909 0.36048391
-0.057583716 -0.017119484 0.36106294
-0.05590288 -0.016924726 0.35695535
-0.05443725 -0.016789058 0.35409403
-0.053106014 -0.016690461 0.35201454
-0.051828504 -0.016605249 0.35021734
-0.050610509 -0.016536107 0.34875908
-0.04942375 -0.016474584 0.34746152
-0.048265621 -0.016420264 0.34631586
-0.047132883 -0.016372476 0.34530798
-0.046021644 -0.016330261 0.34441763
-0.044932202 -0.016294096 0.34365487
-0.043854389 -0.016260616 0.34294879
-0.042791545 -0.016231276 0.34232998
-0.041733846 -0.016202552 0.34172416
-0.040692739 -0.016179042 0.34122831
-0.039659008 -0.016157374 0.34077132
-0.038633026 -0.016137846 0.34035948
-0.037612047 -0.016119448 0.33997145
-0.036597047 -0.016102701 0.33961824
-0.03559259 -0.016089801 0.33934614
-0.034591246 -0.016077621 0.33908927
-0.033598341 -0.016068771 0.33890262
-0.032608904 -0.016061101 0.33874086
-0.031620793 -0.016053634 0.33858335
-0.030635107 -0.01604696 0.33844262
-0.029653054 -0.016041815 0.33833411
-0.028671952 -0.016036855 0.33822948
-0.027693259 -0.01603294 0.3381469
-0.026719118 -0.01603147 0.33811593
-0.025743417 -0.01602892 0.33806214
-0.024794646 -0.016043594 0.33837163
-0.023825075 -0.016045459 0.33841094
-0.022845799 -0.016040666 0.33830988
-0.021863056 -0.016032908 0.33814624
-0.020881262 -0.016025154 0.33798271
-0.019907113 -0.0160228 0.33793303
-0.018943843 -0.016029404 0.33807236
-0.017988795 -0.016044062 0.33838147
-0.01704463 -0.016070651 0.33894226
-0.016110903 -0.016110903 0.33979121
-0.015167085 -0.016145607 0.34052315
-0.014189002 -0.016146107 0.34053367
-0.013217634 -0.016154885 0.34071884
-0.012248009 -0.016167372 0.3409822
-0.011279792 -0.016184049 0.34133393
-0.010319065 -0.016215675 0.34200093
-0.00936139 -0.016259257 0.34292009
-0.0084152725 -0.016335528 0.34452873
-0.00743635 -0.01635997 0.34504423
-0.0064617852 -0.016402993 0.34595162
-0.0054819486 -0.016445845 0.3468554
-0.0044990047 -0.016496351 0.3479206
-0.0035103317 -0.016548706 0.34902483
-0.0025156995 -0.016603617 0.35018292
-0.0015149373 -0.016664309 0.35146299
-0.00050698232 -0.016730417 0.35285723
0.00050937833 -0.016809486 0.35452485
0.0015368494 -0.016905343 0.35654658
0.0025830811 -0.017048335 0.35956237
0.0036882057 -0.017387256 0.36671045
-0.058486585 -0.016044991 0.36023343
-0.056846447 -0.015876034 0.3564401
-0.055381019 -0.015750565 0.35362312
-0.054048594 -0.015658937 0.35156596
-0.052773736 -0.015580817 0.34981203
-0.051541865 -0.015512601 0.34828046
-0.050343011 -0.015451815 0.34691575
-0.049185939 -0.015401658 0.34578964
-0.048048839 -0.015355814 0.34476039
-0.046930034 -0.015314012 0.34382185
-0.045832749 -0.015277583 0.34300399
-0.044757284 -0.015246986 0.34231704
-0.043691918 -0.015218534 0.34167823
-0.04263816 -0.015192907 0.3411029
-0.041592244 -0.015168936 0.3405647
-0.040555082 -0.015147079 0.34007397
-0.039525382 -0.015126998 0.33962312
-0.03850501 -0.01510956 0.33923164
-0.037490048 -0.015093395 0.33886871
-0.036480818 -0.015078738 0.33853963
-0.035478037 -0.015066016 0.338254
-0.034485221 -0.015056928 0.33804995
-0.03349584 -0.015048856 0.33786872
-0.032507602 -0.015040832 0.33768857
-0.031522047 -0.015033592 0.33752602
-0.030539025 -0.015027139 0.33738115
-0.029557772 -0.015021163 0.33724698
-0.028579533 -0.015016365 0.33713925
-0.027600933 -0.015011034 0.33701956
-0.026622802 -0.015005579 0.3368971
-0.025643243 -0.014998877 0.33674663
-0.024674941 -0.014998494 0.33673802
-0.023697803 -0.014992487 0.33660316
-0.022791494 -0.015032688 0.33750573
-0.021795738 -0.015014842 0.33710507
-0.020820625 -0.015010219 0.33700126
-0.019861037 -0.015016881 0.33715084
-0.018901963 -0.015024637 0.33732498
-0.017944554 -0.015034626 0.33754924
-0.016984131 -0.015043088 0.33773923
-0.016027343 -0.015055988 0.33802885
-0.015086283 -0.015086283 0.33870903
-0.014134603 -0.015109403 0.33922809
-0.013186405 -0.015139947 0.33991385
-0.01222058 -0.01515352 0.34021857
-0.011258347 -0.015174293 0.34068498
-0.010295755 -0.015198496 0.34122837
-0.0093344599 -0.015229908 0.34193361
-0.0083720554 -0.015266689 0.3427594
-0.0074071218 -0.015308051 0.34368804
-0.0064372187 -0.015350291 0.34463638
-0.0054611107 -0.015390403 0.34553695
-0.0044806143 -0.015433228 0.34649843
-0.0034950448 -0.015478056 0.34750488
-0.0025045879 -0.015528445 0.34863621
-0.0015078108 -0.015580711 0.34980965
-0.00050445047 -0.015637964 0.35109505
0.0005064815 -0.015700927 0.35250866
0.0015267663 -0.015776586 0.35420731
0.0025589259 -0.015865341 0.35620001
0.0036132471 -0.016001523 0.35925749
0.0047289878 -0.016288737 0.36570585
-0.059424818 -0.014985389 0.35964683
-0.057796307 -0.014832681 0.35598186
-0.056330074 -0.014716865 0.35320231
-0.054997232 -0.014632291 0.35117254
-0.053719763 -0.014559562 0.34942704
-0.052474018 -0.014492824 0.34782535
-0.0512807 -0.014438256 0.34651572
-0.050110217 -0.014388082 0.34531155
-0.048962079 -0.014342427 0.34421584
-0.047852494 -0.014306416 0.34335157
-0.046751957 -0.01427165 0.3425172
-0.045672555 -0.01424198 0.34180513
-0.044599067 -0.014212891 0.34110698
-0.043544311 -0.014188596 0.34052393
-0.042495701 -0.014165234 0.33996323
-0.041456301 -0.014143915 0.33945158
-0.040420756 -0.014122915 0.33894759
-0.039399672 -0.014106056 0.33854297
-0.038382906 -0.014089927 0.3381559
-0.037375432 -0.014076462 0.33783272
-0.036370333 -0.014063196 0.33751434
-0.035371315 -0.014051617 0.33723646
-0.03438019 -0.014042613 0.33702037
-0.033394482 -0.014035362 0.33684632
-0.032411236 -0.014028744 0.33668751
-0.03142767 -0.014021576 0.33651549
-0.03044525 -0.01401448 0.33634517
-0.029466515 -0.014008671 0.33620575
-0.028500846 -0.014008891 0.33621103
-0.027529288 -0.014006129 0.33614475
-0.026552364 -0.014000338 0.33600575
-0.025566347 -0.013989133 0.33573684
-0.024578489 -0.013976004 0.33542174
-0.023602782 -0.013968994 0.33525351
-0.022628151 -0.013962051 0.33508688
-0.02168205 -0.013972877 0.3353467
-0.020753304 -0.013996415 0.3359116
-0.019829974 -0.014026079 0.33662355
-0.01887987 -0.014038878 0.33693072
-0.017919378 -0.014044918 0.33707568
-0.016950581 -0.014044766 0.33707204
-0.015986631 -0.014048857 0.33717021
-0.015033205 -0.014063321 0.33751735
-0.014084369 -0.014084369 0.3380225
-0.013147492 -0.014121381 0.33891076
-0.012198818 -0.014150629 0.33961272
-0.011237149 -0.014168579 0.34004351
-0.010275273 -0.014189662 0.34054953
-0.0093126986 -0.014214118 0.34113646
-0.0083491644 -0.014242692 0.34182221
-0.0073831542 -0.014274098 0.34257597
-0.0064148819 -0.014310121 0.3434405
-0.0054415828 -0.01434599 0.34430137
-0.0044642123 -0.014384684 0.34523001
-0.0034819595 -0.014425261 0.34620383
-0.0024946472 -0.014468954 0.34725246
-0.0015014013 -0.014513546 0.34832266
-0.00050222641 -0.014564565 0.34954712
0.00050405652 -0.014617639 0.35082087
0.0015185053 -0.014678883 0.35229075
0.0025427779 -0.014748112 0.35395223
0.0035819779 -0.014839622 0.35614845
0.004642535 -0.014959279 0.3590202
0.0057735778 -0.01522125 0.36530745
-0.060505979 -0.013962918 0.35993049
-0.058764976 -0.013796994 0.35565338
-0.057286996 -0.013688043 0.35284486
-0.055949982 -0.013609455 0.35081905
-0.054665808 -0.013541072 0.3490563
-0.053422652 -0.013480483 0.34749445
-0.052220821 -0.013428211 0.34614703
-0.051043909 -0.013380443 0.34491566
-0.049895063 -0.013338284 0.34382892
-0.04877647 -0.013302674 0.34291098
-0.04767153 -0.013269395 0.34205312
-0.046589684 -0.013241279 0.34132835
-0.045518685 -0.013215102 0.3406536
-0.044459481 -0.013191274 0.34003937
-0.04340696 -0.013168403 0.33944979
-0.042367931 -0.013148669 0.3389411
-0.041333023 -0.013129313 0.33844215
-0.040305268 -0.013111352 0.33797917
-0.03928709 -0.013095697 0.33757561
-0.038276449 -0.013081824 0.33721802
-0.037268981 -0.013068344 0.33687052
-0.036264762 -0.013055314 0.33653465
-0.035273295 -0.013046288 0.33630195
-0.034285214 -0.013038038 0.33608931
-0.03330211 -0.01303126 0.33591458
-0.032320924 -0.013024851 0.33574936
-0.031342588 -0.013019228 0.33560443
-0.030362232 -0.013012385 0.33542803
-0.029389219 -0.013008343 0.33532384
-0.028422406 -0.013006863 0.33528569
-0.027469818 -0.013012019 0.33541858
-0.026491838 -0.013005084 0.33523983
-0.025494745 -0.012987889 0.33479658
-0.024513135 -0.012977541 0.33452985
-0.023540346 -0.01297121 0.33436665
-0.022582181 -0.012972742 0.33440614
-0.021632222 -0.012979333 0.33457604
-0.020686425 -0.01298915 0.33482909
-0.019752491 -0.013007739 0.33530825
-0.018843176 -0.013045276 0.33627588
-0.017891042 -0.013055624 0.33654264
-0.016926311 -0.01305744 0.33658943
-0.015959399 -0.01305769 0.33659589
-0.015001893 -0.013066165 0.33681434
-0.014046822 -0.013078076 0.33712137
-0.013102126 -0.013102126 0.33774135
-0.012180907 -0.013155379 0.33911407
-0.011213592 -0.013163782 0.33933067
-0.010252914 -0.013182318 0.33980849
-0.0092910193 -0.013203028 0.34034234
-0.0083287312 -0.013227985 0.34098569
-0.0073636132 -0.013254504 0.34166926
-0.0063954885 -0.013282938 0.34240222
-0.0054245563 -0.01331482 0.34322408
-0.0044493466 -0.013348039 0.34408039
-0.0034697433 -0.013383295 0.34498921
-0.0024856722 -0.013422631 0.34600317
-0.0014959323 -0.013463391 0.34705389
-0.00050022698 -0.013506128 0.34815553
0.00050196209 -0.013552977 0.34936318
0.0015117081 -0.013605374 0.35071385
0.0025299611 -0.01366179 0.35216811
0.0035602225 -0.013732287 0.35398537
0.0046060546 -0.013818164 0.35619909
0.0056781303 -0.013937229 0.35926828
0.0068310592 -0.014187585 0.36572185
-0.061593756 -0.012939865 0.36024332
-0.059749719 -0.012767034 0.35543174
-0.058262534 -0.012665768 0.35261253
-0.056904454 -0.012589481 0.35048869
-0.055617962 -0.012526568 0.34873721
-0.054374304 -0.012471171 0.34719497
-0.053164627 -0.012421642 0.34581611
-0.051984284 -0.012377211 0.34457913
-0.05083194 -0.012337849 0.34348333
-0.049702566 -0.012302616 0.34250242
-0.048592668 -0.012270876 0.34161881
-0.047506835 -0.012244029 0.34087139
-0.046436228 -0.01222006 0.34020409
-0.045375366 -0.012197679 0.33958101
-0.044322547 -0.012176524 0.33899206
-0.043279391 -0.012157132 0.33845219
-0.042243462 -0.012138926 0.33794534
-0.041213948 -0.012121749 0.33746713
-0.040191423 -0.01210585 0.33702451
-0.039177228 -0.012091736 0.3366316
-0.038172126 -0.012079787 0.33629891
-0.037170295 -0.012068278 0.33597851
-0.03617264 -0.012057547 0.33567974
-0.035180312 -0.012048052 0.33541542
-0.034195498 -0.012040669 0.33520988
-0.033212423 -0.012033487 0.33500993
-0.0322382 -0.012029179 0.33489001
-0.031265829 -0.012025319 0.33478254
-0.03028588 -0.012018207 0.33458453
-0.029303622 -0.012009681 0.33434719
-0.028305048 -0.011993664 0.33390129
-0.027317021 -0.011981149 0.33355287
-0.026340868 -0.011973122 0.33332938
-0.025387349 -0.011975165 0.33338624
-0.024444455 -0.011982576 0.33359259
-0.023493607 -0.011986534 0.33370277
-0.022548232 -0.011993741 0.3339034
-0.021592282 -0.011995712 0.3339583
-0.020629607 -0.011993958 0.33390945
-0.019672679 -0.011995535 0.33395338
-0.018734012 -0.012008982 0.33432773
-0.017814817 -0.012037039 0.33510882
-0.016878951 -0.012056394 0.33564767
-0.01593185 -0.012069584 0.33601487
-0.01497591 -0.012077347 0.33623099
-0.014021755 -0.01208772 0.33651978
-0.013073697 -0.012105275 0.33700851
-0.012129685 -0.012129685 0.33768806
-0.011186008 -0.012158705 0.33849597
-0.010228308 -0.012176557 0.33899298
-0.0092695225 -0.01219674 0.33955488
-0.0083080865 -0.012217774 0.34014046
-0.0073448163 -0.012241361 0.3407971
-0.0063782712 -0.012265906 0.34148043
-0.0054088789 -0.012292907 0.34223214
-0.0044355546 -0.012320985 0.34301382
-0.0034586471 -0.012352311 0.34388593
-0.0024774957 -0.012387479 0.34486499
-0.0014907646 -0.012423038 0.34585497
-0.00049844413 -0.012461103 0.34691468
0.00050011696 -0.012502924 0.34807897
0.0015054705 -0.012545587 0.34926671
0.0025190895 -0.012595448 0.35065481
0.0035424025 -0.012651438 0.35221356
0.0045796894 -0.012721359 0.35416016
0.0056322869 -0.012800652 0.35636765
0.006721084 -0.012925162 0.35983399
0.0079226857 -0.013204477 0.36761007
-0.062847614 -0.01194624 0.3615011
-0.0607697 -0.011745404 0.35542366
-0.059251633 -0.011647757 0.35246879
-0.057880387 -0.011576077 0.35029972
-0.056586742 -0.011517656 0.34853184
-0.055332243 -0.01146524 0.3469457
-0.054122791 -0.011420405 0.34558898
-0.052940134 -0.011379655 0.34435585
-0.051780064 -0.011342299 0.34322545
-0.050640363 -0.011308042 0.34218881
-0.049525801 -0.011278153 0.34128433
-0.048431341 -0.011251725 0.34048462
-0.047353148 -0.011228066 0.33976868
-0.046290562 -0.011207188 0.3391369
-0.045240175 -0.01118843 0.33856925
-0.044193368 -0.011169752 0.33800405
-0.043156818 -0.011152886 0.33749366
-0.042125113 -0.011136524 0.33699855
-0.041103251 -0.011122056 0.33656076
-0.040085364 -0.011107992 0.33613515
-0.039077308 -0.011096026 0.33577305
-0.038076185 -0.011085471 0.33545366
-0.037078734 -0.011075466 0.3351509
-0.036084749 -0.01106599 0.33486414
-0.03509159 -0.011056255 0.33456954
-0.034104645 -0.011047984 0.33431926
-0.033128362 -0.011042787 0.334162
-0.032171618 -0.011043988 0.33419836
-0.031201283 -0.011040454 0.3340914
-0.030217288 -0.011031708 0.33382675
-0.029206675 -0.011012353 0.33324105
-0.028205074 -0.010995199 0.33272195
-0.027214371 -0.010981238 0.33229947
-0.026248198 -0.010976519 0.33215669
-0.025295636 -0.010977351 0.33218187
-0.024364403 -0.010987868 0.3325001
-0.023442918 -0.011003819 0.33298281
-0.022511918 -0.01101647 0.33336565
-0.021560671 -0.011019899 0.33346939
-0.02059765 -0.011017347 0.33339217
-0.019638138 -0.011016517 0.33336705
-0.018687893 -0.011021065 0.33350468
-0.017747726 -0.01103237 0.33384678
-0.016827537 -0.011058096 0.33462524
-0.015905119 -0.011085386 0.3354511
-0.01495369 -0.011094673 0.3357321
-0.013999805 -0.011103293 0.33599296
-0.013050523 -0.011117112 0.33641112
-0.012101406 -0.011133294 0.3369008
-0.011155197 -0.011155197 0.3375636
-0.010203505 -0.011175267 0.33817095
-0.0092477119 -0.011194598 0.33875591
-0.0082887653 -0.011214212 0.33934942
-0.0073263189 -0.011233689 0.33993882
-0.0063620037 -0.011255853 0.34060952
-0.0053942297 -0.011278844 0.34130523
-0.004423514 -0.011304535 0.34208268
-0.0034487117 -0.011331481 0.34289807
-0.0024697932 -0.011361049 0.3437928
-0.0014859646 -0.011392395 0.34474137
-0.00049680285 -0.011426467 0.34577239
0.00049843133 -0.011463922 0.3469058
0.0015003002 -0.011502302 0.34806722
0.0025094927 -0.011543667 0.34931895
0.0035277656 -0.011591231 0.35075825
0.0045559271 -0.011642925 0.35232258
0.0056006783 -0.011710509 0.3543677
0.0066658314 -0.011793394 0.35687587
0.0077743265 -0.011920635 0.36072624
-0.06427756 -0.010974218 0.3637144
-0.06186052 -0.010736123 0.35582331
-0.060289051 -0.010639245 0.3526125
-0.058889352 -0.010569884 0.35031369
-0.057569478 -0.010512687 0.34841806
-0.056309968 -0.010464684 0.34682712
-0.055088587 -0.010422166 0.34541792
-0.053903181 -0.010385017 0.34418672
-0.052732769 -0.010349423 0.34300703
-0.05159194 -0.010318387 0.34197846
-0.050470226 -0.010290046 0.34103915
-0.049369216 -0.010264887 0.34020528
-0.048282333 -0.010241707 0.33943707
-0.047216471 -0.010222122 0.33878797
-0.046157166 -0.010203163 0.33815962
-0.045109957 -0.01018612 0.33759475
-0.044073947 -0.010170911 0.3370907
-0.043041747 -0.010155918 0.33659378
-0.042017829 -0.010142234 0.33614028
-0.040998179 -0.010128962 0.33570039
-0.03998781 -0.010117398 0.33531713
-0.038980663 -0.010106098 0.33494261
-0.03798198 -0.010096476 0.33462372
-0.036990393 -0.010088288 0.33435237
-0.036002573 -0.01008072 0.33410153
-0.03500209 -0.010069094 0.33371621
-0.034011465 -0.010059728 0.33340582
-0.033042006 -0.010056262 0.33329093
-0.032105159 -0.010062811 0.33350798
-0.031138649 -0.010060179 0.33342075
-0.030149149 -0.010049716 0.33307397
-0.029140968 -0.010032136 0.33249134
-0.028145324 -0.010017827 0.33201709
-0.027170049 -0.010010018 0.33175829
-0.026200149 -0.010003693 0.33154866
-0.025247544 -0.010003744 0.33155033
-0.024311051 -0.010010432 0.33177203
-0.023387112 -0.010023048 0.33219013
-0.02246674 -0.01003833 0.33269662
-0.021517694 -0.010041591 0.33280468
-0.020563548 -0.010042664 0.33284023
-0.019606518 -0.010042363 0.33283028
-0.018655842 -0.010045454 0.33293271
-0.017712958 -0.0100533 0.33319277
-0.016777199 -0.010066319 0.33362424
-0.015883483 -0.010107671 0.33499476
-0.014933066 -0.010115948 0.33526906
-0.013979899 -0.010123375 0.33551523
-0.013030706 -0.010134994 0.33590031
-0.012080586 -0.010147692 0.33632115
-0.011129668 -0.01016187 0.33679107
-0.010179211 -0.010179211 0.33736581
-0.0092255054 -0.010196611 0.33794248
-0.0082688117 -0.010214414 0.33853251
-0.0073089995 -0.010232599 0.3391352
-0.0063463557 -0.010251805 0.33977175
-0.0053802845 -0.010271452 0.3404229
-0.0044116722 -0.010293902 0.34116694
-0.0034395945 -0.010318783 0.34199157
-0.0024631107 -0.010345065 0.34286261
-0.001481762 -0.010372334 0.34376639
-0.000495299 -0.010401279 0.3447257
0.0004967564 -0.010431885 0.34574005
0.0014952874 -0.010467011 0.34690425
0.0025005946 -0.010502498 0.34808034
0.0035149555 -0.010544866 0.34948456
0.0045381025 -0.010588907 0.35094416
0.0055734129 -0.010640152 0.35264257
0.0066255028 -0.010702736 0.35471675
0.0077072671 -0.010790174 0.3576147
0.0088382121 -0.010917791 0.36184427
-0.063043281 -0.0097383931 0.35673022
-0.061349079 -0.009633326 0.35288149
-0.059922479 -0.0095674545 0.35046852
-0.058581002 -0.0095131537 0.34847942
-0.0572985 -0.0094667086 0.34677806
-0.056068137 -0.0094273863 0.34533763
-0.054869313 -0.0093920445 0.34404302
-0.053685479 -0.0093580196 0.34279662
-0.052547164 -0.0093308054 0.34179974
-0.051417869 -0.0093041854 0.34082463
-0.050315641 -0.0092815263 0.33999458
-0.049221233 -0.00925944 0.33918554
-0.048147805 -0.0092404876 0.33849129
-0.047085352 -0.0092229042 0.33784717
-0.04602693 -0.009205386 0.33720547
-0.044989433 -0.0091913892 0.33669275
-0.043957651 -0.0091779707 0.33620122
-0.042933937 -0.0091656726 0.3357507
-0.041916247 -0.0091541223 0.33532763
-0.04090267 -0.0091429502 0.33491835
-0.039895765 -0.0091327652 0.33454528
-0.038891412 -0.0091226771 0.33417574
-0.037900772 -0.0091153756 0.33390826
-0.036915138 -0.0091089299 0.33367217
-0.035929251 -0.0091020763 0.33342111
-0.034935948 -0.0090929177 0.3330856
-0.033931077 -0.0090801464 0.33261779
-0.032933973 -0.009068775 0.33220124
-0.031957213 -0.0090624932 0.33197111
-0.031015873 -0.0090661785 0.33210611
-0.030048434 -0.0090622259 0.33196133
-0.029093442 -0.0090618916 0.33194908
-0.028127884 -0.0090581318 0.33181137
-0.027162157 -0.0090540526 0.33166191
-0.026193609 -0.0090487013 0.3314659
-0.025220204 -0.009041205 0.3311913
-0.024260754 -0.0090383198 0.33108562
-0.023318676 -0.0090419352 0.33121806
-0.022394169 -0.0090529621 0.33162197
-0.021462282 -0.0090618525 0.33194765
-0.020525496 -0.0090694055 0.33222431
-0.019577982 -0.0090727229 0.33234584
-0.01862899 -0.0090756621 0.33245352
-0.017685093 -0.0090815341 0.3326686
-0.016749088 -0.0090923617 0.33306524
-0.015818164 -0.0091074277 0.33361712
-0.014909252 -0.0091379285 0.33473441
-0.013953396 -0.0091418801 0.33487916
-0.013005941 -0.0091523286 0.33526191
-0.012057389 -0.0091636153 0.33567536
-0.011107688 -0.0091759162 0.33612594
-0.010157234 -0.0091898786 0.33663741
-0.0092044026 -0.0092044026 0.33716944
-0.008249253 -0.0092197536 0.33773178
-0.0072919554 -0.0092364764 0.33834437
-0.0063315313 -0.0092537766 0.33897808
-0.0053678486 -0.0092717391 0.33963606
-0.0044008056 -0.009290589 0.34032658
-0.0034305372 -0.0093114581 0.34109104
-0.0024564641 -0.0093345642 0.34193742
-0.0014778151 -0.0093594957 0.34285071
-0.00049395248 -0.0093850978 0.34378853
0.00049536588 -0.0094119515 0.34477225
0.0014908047 -0.0094417632 0.34586427
0.0024930548 -0.0094736088 0.34703082
0.0035029403 -0.0095079802 0.34828991
0.0045218463 -0.0095461197 0.34968701
0.0055514229 -0.0095888218 0.35125121
0.0065946295 -0.0096383048 0.35306385
0.0076584797 -0.0097007407 0.35535097
0.0087596765 -0.0097902268 0.35862896
0.009920544 -0.009920544 0.36340266
-0.064264812 -0.0087400144 0.35782397
-0.062467217 -0.0086336806 0.35347056
-0.06098523 -0.0085681723 0.35078862
-0.059614681 -0.0085163834 0.34866831
-0.058318652 -0.0084736506 0.34691879
-0.057067681 -0.0084360922 0.34538111
-0.055860091 -0.0084037306 0.34405622
-0.054676641 -0.0083739003 0.34283492
-0.053519849 -0.0083471322 0.34173903
-0.052378688 -0.0083218478 0.34070385
-0.051265799 -0.0083001768 0.33981663
-0.050167646 -0.0082800966 0.33899453
-0.049085237 -0.0082618715 0.33824837
-0.048017729 -0.0082454691 0.33757684
-0.046965104 -0.0082309972 0.33698437
-0.04592042 -0.0082173385 0.33642516
-0.044885125 -0.0082048075 0.33591214
-0.043856002 -0.0081928801 0.3354238
-0.042838328 -0.008182602 0.33500302
-0.041823104 -0.0081723314 0.33458251
-0.040813446 -0.0081626894 0.33418778
-0.039807383 -0.0081533194 0.33380416
-0.038807411 -0.0081447652 0.33345395
-0.037825078 -0.008139574 0.3332414
-0.036855821 -0.0081369989 0.33313599
-0.035874583 -0.008131572 0.33291382
-0.034863897 -0.0081189889 0.33239865
-0.033853222 -0.0081057008 0.33185461
-0.032854032 -0.0080944719 0.33139488
-0.03187627 -0.0080880094 0.3311303
-0.030911999 -0.0080846762 0.33099386
-0.029975975 -0.0080887554 0.33116084
-0.0290365 -0.0080921398 0.33129939
-0.02809047 -0.0080938637 0.33137
-0.027150167 -0.0080974186 0.33151552
-0.026185136 -0.0080935871 0.33135867
-0.025184212 -0.0080779549 0.33071867
-0.024222426 -0.008074142 0.33056256
-0.023275549 -0.0080751898 0.33060548
-0.022344306 -0.0080819828 0.33088359
-0.021419898 -0.008091961 0.33129209
-0.020489383 -0.0081004538 0.3316398
-0.019550692 -0.0081063844 0.3318826
-0.018606337 -0.0081104543 0.33204922
-0.01766408 -0.0081159296 0.33227336
-0.016724562 -0.0081233587 0.33257756
-0.015788602 -0.0081335222 0.33299363
-0.014858652 -0.008148293 0.33359838
-0.013923033 -0.0081617786 0.33415046
-0.01298074 -0.0081730578 0.33461228
-0.012033962 -0.0081830947 0.33502316
-0.011086783 -0.0081945788 0.33549336
-0.010137055 -0.0082061868 0.33596861
-0.0091860881 -0.0082191313 0.33649856
-0.0082322257 -0.0082322257 0.33703464
-0.0072760303 -0.0082461676 0.33760545
-0.006317433 -0.0082612587 0.33822328
-0.0053557954 -0.0082771387 0.33887342
-0.004390832 -0.0082937935 0.33955529
-0.0034225867 -0.0083119962 0.34030053
-0.0024501923 -0.0083306544 0.34106439
-0.0014739691 -0.0083524911 0.34195843
-0.00049262401 -0.0083746081 0.34286392
0.00049403158 -0.0083985366 0.34384358
0.0014863724 -0.0084227771 0.344836
0.0024856811 -0.0084513156 0.3460044
0.003491886 -0.0084802946 0.3471908
0.0045073256 -0.0085138371 0.34856406
0.0055315108 -0.0085486984 0.34999132
0.0065695359 -0.008590932 0.35172039
0.0076224171 -0.0086387396 0.35367769
0.0087006455 -0.0087006455 0.35621217
0.0098215211 -0.0087876767 0.3597753
0.011036037 -0.0089339344 0.36576325
-0.065781876 -0.0077695134 0.3605029
-0.063620046 -0.007634405 0.35423392
-0.0620807 -0.0075708171 0.35128346
-0.060692281 -0.0075238366 0.34910357
-0.059364971 -0.0074829794 0.34720781
-0.058086328 -0.0074469652 0.34553677
-0.056859527 -0.0074164597 0.34412134
-0.055668738 -0.0073896558 0.34287763
-0.054500747 -0.007364966 0.34173203
-0.053359244 -0.0073430152 0.34071353
-0.052233838 -0.0073225005 0.33976164
-0.051126547 -0.0073037921 0.33889359
-0.050037608 -0.0072870301 0.33811584
-0.048965849 -0.007272156 0.33742568
-0.047905516 -0.0072584115 0.33678794
-0.046854753 -0.0072455802 0.33619258
-0.045816053 -0.0072341133 0.33566052
-0.044781305 -0.0072227912 0.33513516
-0.04375834 -0.0072129131 0.33467683
-0.042743675 -0.0072039906 0.33426282
-0.041741304 -0.0071967766 0.33392811
-0.040729031 -0.0071874764 0.33349657
-0.039720148 -0.0071783396 0.33307263
-0.038722605 -0.0071708523 0.33272523
-0.037718885 -0.0071618133 0.33230582
-0.036772769 -0.0071635265 0.3323853
-0.035815343 -0.0071630683 0.33236405
-0.03480674 -0.0071520698 0.33185372
-0.03379295 -0.0071393554 0.33126378
-0.032786746 -0.0071275532 0.33071616
-0.031800654 -0.007119549 0.33034477
-0.03083949 -0.0071168053 0.33021745
-0.029894693 -0.0071177841 0.33026287
-0.02896018 -0.0071213557 0.3304286
-0.028027933 -0.007125746 0.3306323
-0.027094685 -0.0071301805 0.33083805
-0.026129706 -0.0071262834 0.33065724
-0.025150163 -0.0071179708 0.33027154
-0.02419332 -0.0071156826 0.33016536
-0.023247341 -0.0071165329 0.33020481
-0.022312777 -0.0071210987 0.33041668
-0.021386024 -0.0071286745 0.3307682
-0.020469455 -0.0071405079 0.33131725
-0.019530717 -0.0071453843 0.33154351
-0.018585483 -0.0071482621 0.33167705
-0.017643329 -0.0071527013 0.33188301
-0.016703522 -0.0071586519 0.33215913
-0.015767287 -0.0071669491 0.33254412
-0.014829664 -0.0071756439 0.33294755
-0.013895205 -0.0071871751 0.33348259
-0.012954812 -0.0071971179 0.33394393
-0.012011491 -0.007206894 0.33439755
-0.01106602 -0.007216969 0.33486503
-0.010117953 -0.0072271093 0.33533552
-0.009167877 -0.0072377976 0.33583146
-0.0082158968 -0.0072493209 0.33636615
-0.0072608818 -0.0072608818 0.33690256
-0.0063039386 -0.0072737751 0.33750081
-0.0053441008 -0.0072874096 0.33813345
-0.0043809968 -0.0073016612 0.33879471
-0.0034151014 -0.0073180743 0.33955628
-0.0024448608 -0.007334582 0.34032223
-0.0014704489 -0.0073522446 0.34114176
-0.00049145432 -0.0073718145 0.34204981
0.00049281347 -0.0073922016 0.34299576
0.0014827986 -0.0074139927 0.34400687
0.002479116 -0.0074373479 0.34509054
0.0034822971 -0.0074620647 0.34623739
0.0044936347 -0.0074893911 0.34750533
0.0055145686 -0.0075198663 0.34891936
0.0065449495 -0.0075518647 0.35040408
0.0075928541 -0.0075928541 0.35230598
0.0086563332 -0.0076379408 0.35439798
0.0097543644 -0.0077008139 0.35731527
0.01090007 -0.0077857641 0.36125693
-0.064924948 -0.0066458606 0.35580668
-0.063218869 -0.0065747625 0.35200021
-0.061780177 -0.006529612 0.34958294
-0.060417574 -0.0064911442 0.34752345
-0.059129026 -0.0064594732 0.34582785
-0.057884373 -0.0064315973 0.34433541
-0.056675665 -0.0064068143 0.34300858
-0.055495113 -0.0063843937 0.34180823
-0.054342404 -0.0063644261 0.34073919
-0.053208616 -0.0063459817 0.33975172
-0.052095439 -0.0063293525 0.33886144
-0.050992485 -0.0063133556 0.33800498
-0.049916785 -0.0063001765 0.33729941
-0.048847299 -0.0062872763 0.33660874
-0.047795247 -0.0062761437 0.33601272
-0.046751767 -0.0062657008 0.33545363
-0.045714807 -0.0062557105 0.33491877
-0.044684116 -0.0062461663 0.33440781
-0.043666258 -0.0062380373 0.33397257
-0.042656977 -0.0062307944 0.33358482
-0.041676112 -0.0062274649 0.33340657
-0.04066075 -0.0062187025 0.33293745
-0.039649826 -0.0062102135 0.33248296
-0.038623035 -0.0061987587 0.33186969
-0.037600819 -0.0061874767 0.33126566
-0.03660382 -0.0061798654 0.33085817
-0.035652831 -0.006179824 0.33085597
-0.034687921 -0.0061773015 0.3307209
-0.033726186 -0.0061752172 0.33060932
-0.032748349 -0.006169979 0.33032888
-0.031764925 -0.0061633433 0.32997361
-0.030783737 -0.0061567472 0.32962048
-0.029820845 -0.0061535076 0.32944703
-0.028881263 -0.0061550234 0.32952818
-0.027959777 -0.006160629 0.32982829
-0.027033044 -0.0061654313 0.3300854
-0.026079936 -0.0061643487 0.33002743
-0.025121663 -0.006161917 0.32989725
-0.024169233 -0.006160785 0.32983664
-0.023225326 -0.0061618215 0.32989213
-0.022288952 -0.0061650295 0.33006388
-0.021359039 -0.0061703892 0.33035085
-0.020442745 -0.0061803646 0.3308849
-0.019510834 -0.0061863619 0.33120599
-0.018566342 -0.0061887805 0.33133548
-0.017623946 -0.0061921971 0.33151838
-0.016684182 -0.0061969818 0.33177456
-0.015746269 -0.0062030759 0.33210081
-0.014809865 -0.0062105884 0.33250302
-0.013871188 -0.0062181186 0.33290619
-0.01293237 -0.006226697 0.33336544
-0.011990213 -0.0062349108 0.3338052
-0.011046075 -0.0062434338 0.33426151
-0.010099641 -0.0062521589 0.33472863
-0.0091508338 -0.0062610973 0.33520716
-0.0082001938 -0.0062707369 0.33572325
-0.0072469306 -0.0062806732 0.33625522
-0.0062910528 -0.0062910528 0.33681095
-0.0053329743 -0.0063026058 0.33742946
-0.0043721474 -0.006315324 0.33811036
-0.0034079663 -0.0063290806 0.33884686
-0.0024397094 -0.0063432446 0.33960518
-0.001467252 -0.0063580922 0.3404001
-0.00049034139 -0.0063744378 0.34127522
0.00049162627 -0.0063911416 0.34216949
0.0014793008 -0.0064103035 0.34319538
0.0024729597 -0.0064296951 0.34423357
0.0034734742 -0.0064507378 0.34536016
0.0044815722 -0.006473382 0.34657249
0.0054983199 -0.0064980146 0.34789127
0.0065253899 -0.0065253899 0.34935689
0.0075650765 -0.0065563996 0.35101709
0.0086198114 -0.0065916204 0.35290274
0.0097001288 -0.0066369306 0.35532856
0.010816411 -0.0066958736 0.35848427
0.011993036 -0.0067786723 0.36291716
-0.066395 -0.0056615891 0.35822168
-0.064401686 -0.0055780988 0.35293907
-0.0628855 -0.0055339243 0.35014403
-0.061516196 -0.0055014486 0.34808922
-0.060196549 -0.0054724137 0.34625211
-0.058919981 -0.0054463847 0.34460521
-0.057696506 -0.0054244581 0.34321785
-0.056509968 -0.0054053012 0.34200576
-0.055347398 -0.0053877998 0.34089839
-0.054205664 -0.0053717322 0.33988178
-0.053084526 -0.0053571537 0.33895937
-0.051975712 -0.0053432975 0.33808264
-0.050884619 -0.0053307698 0.33728999
-0.049808502 -0.0053193546 0.33656773
-0.048743512 -0.0053086993 0.33589354
-0.047693785 -0.0052993097 0.33529943
-0.046658885 -0.0052912137 0.33478719
-0.045628376 -0.0052832859 0.33428556
-0.044601575 -0.0052754548 0.33379009
-0.043566521 -0.0052662827 0.33320975
-0.042583894 -0.0052631781 0.3330133
-0.041620933 -0.0052624168 0.33296514
-0.040620562 -0.0052567786 0.3326084
-0.039577469 -0.0052452069 0.33187622
-0.038542297 -0.005234139 0.33117592
-0.037517775 -0.0052239941 0.33053404
-0.036512796 -0.0052161133 0.33003542
-0.035552334 -0.0052143424 0.32992336
-0.034603197 -0.0052141803 0.32991311
-0.033654675 -0.0052141044 0.32990831
-0.032708354 -0.0052143754 0.32992545
-0.031727057 -0.0052089202 0.32958028
-0.030729944 -0.0052004522 0.32904449
-0.029758012 -0.0051958431 0.32875288
-0.028812831 -0.0051957564 0.32874739
-0.027891703 -0.0052001481 0.32902524
-0.026975153 -0.0052057314 0.32937852
-0.026037455 -0.0052074911 0.32948986
-0.025093202 -0.0052080229 0.3295235
-0.0241479 -0.0052083703 0.3295455
-0.023205377 -0.0052093705 0.32960877
-0.022267897 -0.0052116355 0.32975209
-0.021334937 -0.0052152066 0.32997805
-0.020410784 -0.0052213636 0.33036759
-0.019479994 -0.0052263397 0.33068246
-0.018540213 -0.0052292906 0.33086917
-0.017598612 -0.0052320198 0.33104184
-0.016661484 -0.0052364659 0.33132318
-0.015723674 -0.0052412245 0.33162424
-0.014787512 -0.0052471817 0.33200118
-0.013849873 -0.0052534002 0.33239463
-0.012910502 -0.0052598342 0.33280173
-0.011969301 -0.0052664927 0.33322302
-0.011026203 -0.0052734013 0.33366016
-0.010081608 -0.0052808421 0.33413094
-0.0091343774 -0.0052883239 0.33460432
-0.0081851454 -0.0052962708 0.33510715
-0.0072332658 -0.0053043948 0.33562118
-0.0062792758 -0.0053132335 0.33618042
-0.0053224438 -0.0053224438 0.33676317
-0.0043634218 -0.0053330711 0.3374356
-0.0034009675 -0.0053443774 0.33815098
-0.0024347629 -0.0053564785 0.33891663
-0.0014643586 -0.0053693149 0.33972883
-0.00048933795 -0.0053827176 0.34057683
0.000490629 -0.0053969189 0.3414754
0.0014760779 -0.0054122861 0.3424477
0.002467281 -0.005428018 0.3434431
0.0034648229 -0.0054447218 0.34449998
0.0044703339 -0.0054637417 0.34570342
0.0054839789 -0.0054839789 0.34698388
0.006506444 -0.0055054524 0.34834257
0.0075420733 -0.0055308538 0.34994975
0.0085908677 -0.0055587967 0.35171777
0.0096587548 -0.0055919108 0.35381296
0.01075331 -0.0056326864 0.35639295
0.011894682 -0.0056887614 0.35994092
0.013131199 -0.0057777278 0.36557004
-0.068696357 -0.0047195973 0.36497962
-0.065736957 -0.0045862994 0.35467133
-0.064055212 -0.0045393454 0.35104027
-0.062618412 -0.0045085256 0.34865686
-0.061277267 -0.0044837026 0.34673724
-0.059982244 -0.0044614892 0.34501943
-0.058738314 -0.0044423933 0.3435427
-0.057530392 -0.0044254148 0.34222969
-0.056358453 -0.0044106613 0.34108877
-0.055209726 -0.0043972349 0.34005046
-0.054078039 -0.0043847058 0.33908156
-0.052965093 -0.0043732645 0.33819675
-0.051859427 -0.0043620081 0.33732626
-0.050777305 -0.0043523405 0.33657864
-0.049704906 -0.0043431474 0.3358677
-0.048647035 -0.0043348842 0.33522871
-0.047604013 -0.0043276376 0.33466831
-0.04658521 -0.0043223393 0.33425856
-0.045555662 -0.0043157996 0.33375284
-0.044523235 -0.0043087001 0.33320382
-0.043476645 -0.0042998879 0.33252233
-0.042443864 -0.004292076 0.33191824
-0.041462 -0.0042891726 0.33169368
-0.040497482 -0.0042879689 0.33160061
-0.039496247 -0.0042827255 0.33119512
-0.038479406 -0.0042754896 0.33063555
-0.0374575 -0.0042673098 0.33000299
-0.036466151 -0.0042622779 0.32961383
-0.035508841 -0.0042610611 0.32951975
-0.034555461 -0.0042602625 0.329458
-0.033612974 -0.0042607998 0.32949954
-0.032666948 -0.004260906 0.32950777
-0.031679533 -0.0042554601 0.3290866
-0.030678509 -0.0042477935 0.32849374
-0.029713213 -0.0042447448 0.32825798
-0.028767981 -0.0042444561 0.32823566
-0.02783356 -0.0042457972 0.32833937
-0.026924035 -0.0042511635 0.32875434
-0.026005261 -0.0042554066 0.32908246
-0.02506729 -0.0042567095 0.32918325
-0.0241265 -0.0042576175 0.32925346
-0.023184098 -0.0042583034 0.32930651
-0.022246996 -0.0042600627 0.32944256
-0.021310432 -0.0042620865 0.32959905
-0.020377772 -0.0042651151 0.32983327
-0.019444006 -0.0042681964 0.33007154
-0.018510094 -0.0042715603 0.33033168
