# .PCD v0.7 - Point Cloud Data file format
VERSION 0.7
FIELDS x y z
SIZE 4 4 4
TYPE F F F
COUNT 1 1 1
WIDTH 1282
HEIGHT 1
VIEWPOINT 0 0 0 1 0 0 0
POINTS 1282
DATA ascii
-0.031149771 -0.0068635088 0.36745915
-0.030101622 -0.0068652821 0.36755407
-0.029053772 -0.0068672555 0.36765972
-0.028005131 -0.0068691829 0.36776292
-0.026954394 -0.006870728 0.36784562
-0.025903054 -0.0068722386 0.36792651
-0.024852004 -0.0068739587 0.3680186
-0.023801107 -0.0068758754 0.36812121
-0.022748848 -0.0068775592 0.36821136
-0.021695517 -0.0068790666 0.36829206
-0.020643743 -0.0068812473 0.36840883
-0.019591747 -0.0068835868 0.36853406
-0.018537052 -0.006885191 0.36861995
-0.017481621 -0.0068866992 0.36870071
-0.016426263 -0.0068884329 0.36879352
-0.015369779 -0.0068899011 0.36887214
-0.014312897 -0.006891395 0.3689521
-0.013255718 -0.0068929736 0.36903661
-0.012198073 -0.0068945629 0.3691217
-0.011140203 -0.0068963161 0.36921558
-0.010081855 -0.0068981112 0.36931169
-0.0090226326 -0.00689966 0.3693946
-0.0079627978 -0.0069010919 0.36947125
-0.0069036558 -0.0069036558 0.36960852
-0.0058425963 -0.0069048866 0.36967441
-0.004780028 -0.0069044852 0.36965293
-0.0037190784 -0.0069068596 0.36978006
-0.0026576119 -0.0069097904 0.36993697
-0.0015947775 -0.0069107022 0.36998579
-0.00053156947 -0.0069104028 0.36996976
0.00053157483 -0.0069104731 0.36997351
0.0015947771 -0.0069107008 0.3699857
0.0026589194 -0.0069131907 0.37011901
0.0037249092 -0.0069176885 0.37035981
0.0047887536 -0.0069170883 0.37032768
0.0058521964 -0.0069162324 0.37028185
0.0069174808 -0.0069174808 0.37034869
0.0079883896 -0.0069232713 0.3706587
-0.073142067 -0.0057061184 0.36103916
-0.072092444 -0.0057051573 0.36097834
-0.071109138 -0.0057094931 0.36125267
-0.070270233 -0.0057257228 0.36227956
-0.069294795 -0.0057311486 0.36262286
-0.068358824 -0.005740054 0.36318633
-0.067427449 -0.0057496275 0.36379206
-0.066427432 -0.0057535572 0.3640407
-0.065401986 -0.0057553747 0.36415571
-0.06439703 -0.0057590841 0.3643904
-0.063388333 -0.0057625757 0.36461133
-0.062363662 -0.0057647084 0.36474627
-0.061342206 -0.005767216 0.36490494
-0.060316835 -0.0057694362 0.36504543
-0.059282184 -0.0057708323 0.36513373
-0.058245011 -0.0057720281 0.3652094
-0.057209268 -0.0057734125 0.36529699
-0.056175422 -0.0057750433 0.3654002
-0.055131152 -0.0057756444 0.36543822
-0.054099977 -0.0057776673 0.36556622
-0.053057704 -0.0057785618 0.36562282
-0.052025422 -0.0057806023 0.36575192
-0.050988756 -0.0057822303 0.36585492
-0.049941577 -0.005782709 0.3658852
-0.048904076 -0.0057843532 0.36598924
-0.047866154 -0.0057860184 0.36609462
-0.046825554 -0.005787428 0.36618379
-0.045784727 -0.0057888734 0.36627525
-0.044743665 -0.0057903565 0.3663691
-0.043705665 -0.005792317 0.36649314
-0.042661399 -0.0057935235 0.36656946
-0.041610911 -0.005793924 0.36659482
-0.040568739 -0.0057955342 0.36669669
-0.039524131 -0.0057968725 0.36678138
-0.038478129 -0.0057980744 0.36685741
-0.037431464 -0.0057992409 0.36693123
-0.036382504 -0.0058001094 0.36698619
-0.035338081 -0.0058017746 0.36709154
-0.034293201 -0.0058034644 0.36719847
-0.033246901 -0.0058050146 0.36729655
-0.032198589 -0.0058063031 0.36737806
-0.031150144 -0.005807654 0.36746353
-0.030102057 -0.0058091693 0.3675594
-0.029054007 -0.0058108009 0.36766267
-0.028004609 -0.0058122776 0.36775607
-0.026954014 -0.0058136107 0.36784044
-0.025903272 -0.0058150203 0.36792961
-0.024853241 -0.0058167158 0.3680369
-0.023802582 -0.0058184089 0.36814404
-0.022749361 -0.0058196038 0.36821964
-0.021695076 -0.0058206297 0.36828455
-0.020643283 -0.0058224644 0.36840063
-0.019590868 -0.0058243121 0.36851755
-0.018536074 -0.0058256229 0.36860049
-0.017480776 -0.0058269249 0.36868286
-0.016426265 -0.0058286749 0.36879358
-0.015370172 -0.0058300653 0.36888155
-0.014313266 -0.0058313305 0.3689616
-0.013256033 -0.0058326544 0.36904538
-0.012198436 -0.0058340346 0.3691327
-0.011140358 -0.0058354256 0.3692207
-0.010081975 -0.0058369329 0.36931607
-0.0090222741 -0.005837942 0.36937994
-0.0079628797 -0.0058394452 0.36947504
-0.0069037355 -0.0058416221 0.36961278
-0.0058420738 -0.0058420738 0.36964136
-0.0047800024 -0.0058422252 0.36965093
-0.0037192132 -0.005844478 0.36979347
-0.00265761 -0.0058467421 0.36993673
-0.0015947375 -0.0058473707 0.36997652
-0.00053158717 -0.0058474592 0.36998209
0.00053159113 -0.0058475025 0.36998484
0.0015948322 -0.0058477181 0.36999848
0.0026590668 -0.0058499468 0.37013951
0.0037247872 -0.0058532371 0.37034768
0.0047888849 -0.0058530816 0.37033784
0.0058529256 -0.0058529256 0.37032798
0.0069185696 -0.0058541745 0.37040699
0.0079905409 -0.0058597298 0.3707585
-0.073140696 -0.0046685552 0.3610324
-0.072090492 -0.0046677301 0.36096859
-0.071108378 -0.0046713534 0.36124879
-0.070268489 -0.0046845661 0.36227056
-0.069292627 -0.0046889749 0.36261153
-0.068355024 -0.0046961471 0.36316615
-0.06742622 -0.004704155 0.36378545
-0.066427819 -0.0047074831 0.36404282
-0.065405264 -0.0047091786 0.36417395
-0.064389706 -0.0047114422 0.36434898
-0.063377693 -0.0047140433 0.36455014
-0.062368419 -0.0047169393 0.36477408
-0.061335631 -0.0047181253 0.36486581
-0.060300104 -0.0047191386 0.36494416
-0.059274908 -0.0047210101 0.36508891
-0.058238532 -0.0047220429 0.36516878
-0.057207301 -0.0047235386 0.36528444
-0.056169663 -0.004724551 0.36536273
-0.055130322 -0.0047254558 0.36543271
-0.054096647 -0.0047268914 0.36554372
-0.053057384 -0.0047278856 0.36562061
-0.052024409 -0.0047294917 0.3657448
-0.050991677 -0.0047311867 0.36587587
-0.049943723 -0.0047315108 0.36590093
-0.048904575 -0.0047327005 0.36599296
-0.04786554 -0.0047339546 0.36608991
-0.046825949 -0.0047352086 0.36618689
-0.045781173 -0.0047359834 0.36624682
-0.044737615 -0.0047369241 0.36631957
-0.043700367 -0.0047385939 0.3664487
-0.042661097 -0.0047401218 0.36656687
-0.041611273 -0.0047405246 0.36659801
-0.040568925 -0.0047418224 0.36669838
-0.039524361 -0.0047429232 0.3667835
-0.038478278 -0.0047438974 0.36685884
-0.037431724 -0.0047448669 0.36693379
-0.036382284 -0.0047455151 0.36698395
-0.035338141 -0.0047469144 0.36709216
-0.034293026 -0.0047482653 0.36719662
-0.033247177 -0.0047495966 0.36729956
-0.032200404 -0.0047508795 0.36739877
-0.031152224 -0.0047520343 0.36748809
-0.030102843 -0.0047530807 0.367569
-0.029053932 -0.0047542797 0.36766174
-0.028004183 -0.0047554271 0.36775047
-0.02695445 -0.0047566677 0.3678464
-0.02590438 -0.0047579473 0.36794534
-0.02485385 -0.0047592479 0.36804593
-0.023801815 -0.0047603631 0.36813217
-0.022748653 -0.0047613457 0.36820817
-0.021695377 -0.0047623999 0.36828968
-0.02064391 -0.0047639795 0.36841184
-0.019590536 -0.0047652656 0.36851129
-0.018535843 -0.0047663595 0.3685959
-0.017481087 -0.0047675688 0.36868942
-0.016426178 -0.0047688903 0.36879161
-0.015370583 -0.0047701811 0.36889142
-0.014313734 -0.0047712447 0.36897367
-0.013256489 -0.0047723362 0.36905807
-0.012198835 -0.0047734571 0.36914477
-0.011140683 -0.0047745779 0.36923146
-0.010081789 -0.0047755837 0.36930925
-0.00902218 -0.0047764485 0.36937609
-0.0079624336 -0.0047774604 0.36945435
-0.00690328 -0.004779194 0.3695884
-0.0058422359 -0.0047800113 0.36965162
-0.0047807205 -0.0047807205 0.36970648
-0.0037195496 -0.0047822781 0.36982691
-0.0026575301 -0.0047835545 0.36992562
-0.001594804 -0.0047844118 0.36999193
-0.00053159101 -0.0047843191 0.36998475
0.00053157401 -0.0047841663 0.36997294
0.0015948187 -0.004784456 0.36999536
0.0026611062 -0.0047899908 0.37042338
0.0037278011 -0.0047928873 0.37064734
0.0047926693 -0.0047926693 0.3706305
0.0058566122 -0.0047917739 0.37056124
0.0069207805 -0.0047913096 0.37052536
0.0079939757 -0.0047963853 0.37091789
-0.073140472 -0.0036310873 0.36103129
-0.07209295 -0.0036305801 0.36098087
-0.071107611 -0.0036332358 0.36124492
-0.070266999 -0.0036434738 0.36226287
-0.069291361 -0.0036469137 0.36260489
-0.068354122 -0.0036525105 0.36316136
-0.067421608 -0.0036585371 0.36376056
-0.066428468 -0.0036614113 0.36404637
-0.06541115 -0.0036630244 0.36420673
-0.064394921 -0.0036647518 0.36437848
-0.063377321 -0.0036664566 0.364548
-0.062355608 -0.0036679769 0.36469916
-0.06132745 -0.0036691637 0.36481714
-0.060296364 -0.0036702135 0.36492154
-0.059263196 -0.0036711716 0.36501679
-0.058232699 -0.0036723325 0.36513221
-0.057207979 -0.0036739069 0.36528876
-0.056169584 -0.0036746457 0.36536223
-0.05513059 -0.0036753726 0.3654345
-0.054083258 -0.0036755612 0.36545324
-0.05305098 -0.0036768005 0.36557648
-0.052022491 -0.0036783579 0.36573133
-0.050982773 -0.0036791691 0.36581197
-0.049944282 -0.0036801049 0.36590502
-0.048904944 -0.0036810173 0.36599573
-0.047865562 -0.0036819663 0.36609009
-0.046825737 -0.003682923 0.36618522
-0.04578118 -0.0036835433 0.36624688
-0.04473545 -0.0036840958 0.36630183
-0.043699924 -0.0036855359 0.366445
-0.042659145 -0.0036865927 0.36655009
-0.041611508 -0.0036870956 0.3666001
-0.040568087 -0.0036880081 0.36669081
-0.039524399 -0.0036889438 0.36678386
-0.038478028 -0.003689674 0.36685646
-0.037431527 -0.0036904321 0.36693183
-0.036384117 -0.0036911422 0.36700243
-0.035338476 -0.0036920793 0.36709562
-0.034292351 -0.0036930225 0.36718938
-0.03324857 -0.0036942854 0.36731496
-0.032202337 -0.0036953501 0.36742082
-0.031154333 -0.0036962766 0.36751294
-0.030104397 -0.0036970312 0.36758795
-0.029053781 -0.0036977541 0.36765984
-0.028004702 -0.0036987343 0.36775729
-0.026955066 -0.003699715 0.3678548
-0.025904557 -0.003700651 0.36794788
-0.024853043 -0.0037015169 0.36803398
-0.023801034 -0.0037023833 0.3681201
-0.02275021 -0.0037035225 0.36823338
-0.021698644 -0.0037046466 0.36834514
-0.020646667 -0.0037058119 0.36846101
-0.019591924 -0.0037065803 0.3685374
-0.018537188 -0.0037074378 0.36862266
-0.017482406 -0.0037083891 0.36871725
-0.016426912 -0.0037093027 0.36880809
-0.015369928 -0.0037099828 0.36887571
-0.014314244 -0.0037111002 0.36898682
-0.013256959 -0.0037119484 0.36907116
-0.01219917 -0.0037127908 0.3691549
-0.011140751 -0.0037135836 0.36923373
-0.010081806 -0.0037143496 0.3693099
-0.0090222424 -0.0037150409 0.36937863
-0.0079622995 -0.0037157398 0.36944813
-0.0069025694 -0.0037167682 0.36955038
-0.00584182 -0.0037175219 0.3696253
-0.0047808443 -0.0037184346 0.36971605
-0.0037194109 -0.0037194109 0.36981311
-0.0026571655 -0.0037200318 0.36987486
-0.0015945672 -0.0037206567 0.369937
-0.00053160591 -0.0037212416 0.36999515
0.00053156301 -0.0037209413 0.36996529
0.0015946644 -0.0037208837 0.36995956
0.0026631276 -0.0037283786 0.37070477
0.0037300042 -0.0037300042 0.37086639
0.0047958517 -0.0037301069 0.37087661
0.0058601699 -0.0037291991 0.37078634
0.0069228909 -0.0037277106 0.37063834
0.0079934448 -0.0037302743 0.37089324
-0.073151015 -0.0025940076 0.36108333
-0.072100535 -0.0025935445 0.36101887
-0.07110402 -0.0025950372 0.36122665
-0.07026796 -0.0026025171 0.36226785
-0.069290504 -0.002604906 0.36260039
-0.068352051 -0.0026088569 0.36315033
-0.067423888 -0.0026133289 0.36377284
-0.066428676 -0.0026153023 0.36404753
-0.0654101 -0.0026164041 0.36420089
-0.064390823 -0.0026175131 0.36435527
-0.063367225 -0.0026184802 0.36448991
-0.062346235 -0.0026195897 0.36464435
-0.061324816 -0.0026207187 0.3648015
-0.060296912 -0.0026216048 0.36492485
-0.059263565 -0.0026222817 0.36501905
-0.058236904 -0.002623284 0.36515859
-0.057206534 -0.0026241529 0.36527953
-0.056163348 -0.0026244556 0.36532167
-0.055126436 -0.0026250684 0.36540696
-0.054088417 -0.0026256514 0.36548811
-0.053058125 -0.0026266398 0.36562571
-0.052022513 -0.0026273998 0.36573148
-0.050984722 -0.0026280785 0.36582595
-0.049946193 -0.0026287469 0.36591902
-0.048906829 -0.0026293993 0.36600983
-0.047866832 -0.0026300456 0.3660998
-0.046826702 -0.0026307134 0.36619276
-0.045781109 -0.0026310983 0.36624631
-0.044734199 -0.0026314235 0.36629158
-0.043699764 -0.002632516 0.36644366
-0.04265834 -0.0026332308 0.36654317
-0.04161403 -0.0026337993 0.3666223
-0.040570386 -0.0026344408 0.36671159
-0.03952365 -0.0026349099 0.36677691
-0.038477104 -0.002635418 0.36684763
-0.037431445 -0.002636017 0.36693102
-0.036386475 -0.0026367011 0.36702624
-0.035338983 -0.0026372375 0.36710089
-0.034290619 -0.00263774 0.36717084
-0.033245429 -0.0026385263 0.36728027
-0.032201581 -0.0026394739 0.36741221
-0.031154642 -0.0026402241 0.36751661
-0.030103888 -0.0026406921 0.36758175
-0.029053645 -0.0026412406 0.36765811
-0.028004665 -0.0026419496 0.36775681
-0.026955219 -0.0026426686 0.36785689
-0.025904186 -0.0026432844 0.3679426
-0.02485257 -0.0026438904 0.36802697
-0.023801686 -0.0026446318 0.36813018
-0.02275045 -0.0026454013 0.36823729
-0.021700064 -0.0026463494 0.36836925
-0.020647079 -0.0026470614 0.36846837
-0.019591002 -0.0026474327 0.36852005
-0.018537328 -0.0026481897 0.36862543
-0.017482741 -0.0026489 0.36872432
-0.016427226 -0.0026495527 0.36881515
-0.015369215 -0.0026498646 0.36885858
-0.014314152 -0.002650769 0.36898446
-0.013256967 -0.0026513934 0.36907139
-0.012199012 -0.0026519592 0.36915013
-0.011140605 -0.002652525 0.3692289
-0.01008183 -0.0026531131 0.36931077
-0.0090223271 -0.0026536258 0.36938211
-0.0079623712 -0.0026541238 0.36945146
-0.0069021559 -0.0026546754 0.36952823
-0.0058418643 -0.0026553927 0.3696281
-0.004781581 -0.002656434 0.36977303
-0.0037189077 -0.0026563627 0.36976311
-0.0026566035 -0.0026566035 0.36979663
-0.0015942658 -0.0026571096 0.36986709
-0.00053159898 -0.0026579949 0.36999029
0.00053156889 -0.0026578445 0.36996937
0.0015945536 -0.0026575893 0.36993384
0.0026621963 -0.0026621963 0.37057513
0.0037287059 -0.0026633614 0.37073731
0.0047935639 -0.0026630911 0.37069967
0.0058580693 -0.0026627588 0.37065342
0.0069223084 -0.0026624261 0.37060714
0.0079932278 -0.0026644091 0.37088317
-0.073160701 -0.0015566106 0.36113113
-0.072104789 -0.0015562184 0.36104015
-0.071106046 -0.0015570667 0.36123696
-0.070268929 -0.0015615317 0.36227283
-0.069289237 -0.0015629152 0.36259377
-0.068349771 -0.001565262 0.36313823
-0.067421898 -0.0015679511 0.36376211
-0.066423632 -0.0015690621 0.36401987
-0.065398462 -0.0015695632 0.3641361
-0.064387865 -0.0015704357 0.36433855
-0.06336455 -0.0015710219 0.36447453
-0.062346019 -0.0015717483 0.36464307
-0.061321445 -0.0015723448 0.36478144
-0.0602961 -0.0015729418 0.36491993
-0.059266053 -0.001573435 0.36503437
-0.058234952 -0.0015739177 0.36514634
-0.057203218 -0.0015744005 0.36525837
-0.056165427 -0.0015747315 0.36533517
-0.055129915 -0.0015751404 0.36543003
-0.054093935 -0.0015755515 0.36552539
-0.053059366 -0.0015760207 0.36563426
-0.052024081 -0.0015764873 0.3657425
-0.05098632 -0.0015768965 0.36583742
-0.049948018 -0.0015773058 0.3659324
-0.048908774 -0.0015777025 0.3660244
-0.047868811 -0.0015780927 0.36611494
-0.046828333 -0.0015784831 0.36620554
-0.045780722 -0.0015786455 0.36624321
-0.044735909 -0.0015789145 0.36630559
-0.043703716 -0.0015796524 0.3664768
-0.042657185 -0.0015798957 0.36653325
-0.041613854 -0.001580273 0.36662078
-0.040571678 -0.0015807148 0.36672327
-0.039525948 -0.0015810379 0.36679822
-0.038479365 -0.0015813438 0.36686921
-0.037433509 -0.0015816975 0.36695126
-0.03638944 -0.0015821495 0.36705613
-0.035344779 -0.001582602 0.3671611
-0.034296066 -0.0015828954 0.36722916
-0.033245336 -0.0015831114 0.36727926
-0.032201681 -0.0015836892 0.36741334
-0.031152118 -0.001584006 0.36748683
-0.030102514 -0.0015843429 0.36756498
-0.029053975 -0.0015847622 0.36766228
-0.028004924 -0.0015851844 0.36776021
-0.026955128 -0.0015855958 0.36785564
-0.025903886 -0.0015859522 0.36793834
-0.02485284 -0.0015863514 0.36803097
-0.023802705 -0.001586847 0.36814594
-0.022751063 -0.0015872834 0.36824718
-0.021697989 -0.0015876577 0.36833403
-0.020643942 -0.0015879956 0.36841241
-0.019590018 -0.0015883798 0.36850154
-0.018536374 -0.0015888321 0.36860648
-0.017482292 -0.0015892993 0.36871487
-0.016427059 -0.0015897152 0.36881137
-0.01537017 -0.0015900176 0.36888149
-0.014316037 -0.0015906708 0.36903304
-0.013256649 -0.0015907979 0.36906254
-0.012198719 -0.0015911374 0.36914128
-0.011140457 -0.001591494 0.36922401
-0.010081765 -0.0015918578 0.36930841
-0.0090224501 -0.0015921971 0.36938715
-0.0079626115 -0.0015925223 0.36946258
-0.0069024633 -0.0015928762 0.36954468
-0.005841909 -0.0015932479 0.36963093
-0.0047810911 -0.001593697 0.36973512
-0.0037190483 -0.0015938779 0.36977708
-0.0026564847 -0.0015938908 0.36978009
-0.001594318 -0.001594318 0.36987919
-0.0005315328 -0.0015945984 0.36994424
0.0005315395 -0.0015946185 0.36994892
0.0015945052 -0.0015945052 0.36992261
0.0026593688 -0.0015956213 0.37018156
0.0037269883 -0.0015972807 0.37056655
0.0047912635 -0.0015970878 0.37052178
0.0058552669 -0.001596891 0.37047613
0.0069190082 -0.0015966942 0.37043047
0.007990594 -0.0015981188 0.37076098
-0.073168501 -0.00051892555 0.36116967
-0.072105914 -0.00051874755 0.36104578
-0.071102686 -0.00051899772 0.36121988
-0.070266902 -0.00052049558 0.3622624
-0.069287963 -0.00052096217 0.36258712
-0.068347499 -0.00052173663 0.36312616
-0.067417376 -0.00052261527 0.3637377
-0.066417351 -0.00052297127 0.36398545
-0.065392949 -0.00052314356 0.36410537
-0.064384907 -0.00052345457 0.36432183
-0.063364372 -0.0005236725 0.36447349
-0.062345713 -0.00052391354 0.36464128
-0.061329793 -0.00052418624 0.36483109
-0.060316842 -0.00052449427 0.36504546
-0.059268691 -0.00052450167 0.36505061
-0.058234572 -0.00052463578 0.36514395
-0.057201982 -0.0005247888 0.36525047
-0.056169119 -0.00052494503 0.36535919
-0.055132847 -0.00052507472 0.36544946
-0.054096278 -0.00052520656 0.36554122
-0.053061139 -0.00052535778 0.36564648
-0.052025501 -0.00052551011 0.36575249
-0.050987583 -0.00052564515 0.36584648
-0.04994883 -0.00052577717 0.36593834
-0.048910834 -0.00052592292 0.36603981
-0.047871388 -0.00052605919 0.36613464
-0.046827417 -0.00052615075 0.36619836
-0.045777846 -0.00052618212 0.36622021
-0.044742934 -0.00052638748 0.36636311
-0.043709524 -0.00052662077 0.3665255
-0.042656355 -0.0005266217 0.36652613
-0.041609813 -0.00052670651 0.36658517
-0.040571664 -0.00052690471 0.36672312
-0.039526686 -0.00052702246 0.36680508
-0.038479082 -0.00052711071 0.3668665
-0.03743412 -0.00052724109 0.36695725
-0.036390271 -0.00052739523 0.36706451
-0.035345811 -0.00052754942 0.36717182
-0.03429829 -0.00052766601 0.36725298
-0.033247147 -0.00052773248 0.36729923
-0.03219917 -0.0005278553 0.3673847
-0.031151667 -0.00052799436 0.3674815
-0.030103607 -0.00052813347 0.36757833
-0.029055016 -0.000528273 0.36767545
-0.028005555 -0.0005284067 0.3677685
-0.026955189 -0.00052853313 0.36785647
-0.025904153 -0.00052865618 0.36794212
-0.024854047 -0.0005288095 0.36804885
-0.023802759 -0.00052895024 0.36814678
-0.022749968 -0.00052906905 0.36822948
-0.021695793 -0.00052916567 0.36829674
-0.020642618 -0.00052929792 0.36838877
-0.019590495 -0.00052947283 0.36851051
-0.01853561 -0.0005295889 0.36859128
-0.017481375 -0.00052973867 0.36869553
-0.016426604 -0.00052989047 0.36880118
-0.015371461 -0.00053005037 0.36891249
-0.014317283 -0.00053026975 0.36906517
-0.013256647 -0.00053026585 0.36906245
-0.012198578 -0.00053037296 0.36913699
-0.011140376 -0.00053049414 0.36922133
-0.010081693 -0.00053061539 0.36930573
-0.00902241 -0.00053073 0.36938548
-0.0079626804 -0.00053084537 0.3694658
-0.006902541 -0.00053096469 0.36954886
-0.005841828 -0.00053107529 0.36962581
-0.0047805458 -0.00053117174 0.36969295
-0.0037186239 -0.00053123198 0.36973488
-0.0026565359 -0.00053130719 0.36978722
-0.0015942069 -0.0005314023 0.36985341
-0.0005314555 -0.0005314555 0.36989045
0.00053151022 -0.00053151022 0.36992851
0.0015944385 -0.00053147948 0.36990714
0.0026583809 -0.00053167617 0.37004402
0.0037260489 -0.0005322927 0.37047312
0.0047898451 -0.00053220504 0.37041211
0.0058536967 -0.00053215423 0.37037677
0.0069180191 -0.00053215533 0.37037751
0.0079885386 -0.00053256925 0.37066561
-0.073160142 0.00051886623 0.36112839
-0.072110653 0.00051878166 0.36106953
-0.071098827 0.00051896955 0.36120027
-0.07026127 0.00052045385 0.36223334
-0.069286473 0.00052095094 0.36257932
-0.068343036 0.00052170258 0.36310244
-0.067409746 0.00052255619 0.36369658
-0.06641826 0.00052297843 0.36399043
-0.065392248 0.00052313798 0.3641015
-0.064380504 0.00052341877 0.36429691
-0.063352138 0.00052357139 0.36440313
-0.062347282 0.00052392675 0.36465046
-0.06133144 0.00052420032 0.36484089
-0.060303047 0.00052437431 0.36496198
-0.059270352 0.00052451639 0.36506087
-0.058235165 0.00052464113 0.36514768
-0.057204843 0.00052481506 0.36526874
-0.056171574 0.00052496797 0.36537516
-0.055135399 0.00052509905 0.36546639
-0.054098632 0.00052522944 0.36555713
-0.05306254 0.0005253717 0.36565614
-0.05202448 0.00052549981 0.36574531
-0.050983556 0.00052560371 0.36581761
-0.049949523 0.00052578445 0.36594343
-0.048911482 0.00052592991 0.36604467
-0.047873069 0.0005260777 0.36614752
-0.046829782 0.00052617735 0.36621687
-0.045783866 0.00052625133 0.36626837
-0.04474546 0.00052641716 0.36638379
-0.043707881 0.00052660098 0.36651173
-0.042654812 0.00052660261 0.36651286
-0.041610178 0.00052671111 0.36658838
-0.040572017 0.00052690931 0.36672631
-0.039525971 0.00052701298 0.36679846
-0.038478404 0.00052710145 0.36686003
-0.037433729 0.00052723562 0.36695343
-0.036389876 0.00052738952 0.36706054
-0.035345405 0.00052754337 0.36716762
-0.034297131 0.0005276482 0.36724058
-0.033247795 0.00052774278 0.36730641
-0.032200977 0.00052788487 0.3674053
-0.031153738 0.00052802946 0.36750594
-0.030105561 0.0005281677 0.36760217
-0.02905694 0.00052830798 0.3676998
-0.028007351 0.00052844058 0.36779207
-0.026956877 0.00052856619 0.36787951
-0.025905076 0.00052867504 0.36795524
-0.024853524 0.00052879838 0.3680411
-0.023802198 0.00052893773 0.3681381
-0.022750121 0.0005290726 0.36823195
-0.021699149 0.00052924757 0.36835372
-0.020642925 0.00052930572 0.36839423
-0.019591408 0.00052949751 0.36852768
-0.018535161 0.00052957603 0.36858234
-0.017480779 0.00052972056 0.36868295
-0.016426951 0.00052990165 0.36880895
-0.015372688 0.00053009269 0.36894193
-0.014316979 0.00053025846 0.36905733
-0.013256315 0.00053025264 0.36905324
-0.012197807 0.00053033949 0.36911368
-0.011139862 0.00053046964 0.36920428
-0.010081463 0.00053060334 0.36929733
-0.0090223532 0.00053072663 0.36938316
-0.0079625873 0.00053083914 0.36946145
-0.0069023715 0.00053095166 0.36953977
-0.0058414983 0.00053104531 0.36960495
-0.0047807926 0.00053119921 0.36971205
-0.0037189014 0.00053127162 0.36976248
-0.0026568172 0.00053136348 0.36982638
-0.0015942026 0.00053140084 0.36985242
-0.00053142017 0.00053142017 0.36986586
0.00053143647 0.00053143647 0.36987719
0.0015943046 0.0005314349 0.36987609
0.0026581942 0.0005316388 0.37001804
0.0037257802 0.00053225429 0.37044641
0.0047892607 0.00053214008 0.3703669
0.0058526141 0.00053205586 0.37030828
0.0069172564 0.00053209666 0.37033668
0.0079866601 0.00053244398 0.37057844
-0.073151238 0.0015564093 0.36108443
-0.072106563 0.0015562568 0.36104906
-0.071097732 0.0015568847 0.36119473
-0.070256993 0.0015612665 0.36221129
-0.06928324 0.0015627799 0.36256239
-0.068347812 0.001565217 0.36312783
-0.067417547 0.00156785 0.36373866
-0.066419728 0.0015689699 0.36399847
-0.065391555 0.0015693974 0.36409765
-0.064376086 0.0015701484 0.36427188
-0.063341148 0.0015704418 0.36433995
-0.062339853 0.0015715929 0.36460701
-0.061323527 0.0015723981 0.36479381
-0.060295995 0.001572939 0.3649193
-0.059266668 0.0015734513 0.36503816
-0.058236469 0.0015739587 0.36515585
-0.057208151 0.0015745363 0.36528987
-0.056170415 0.0015748715 0.36536762
-0.055132285 0.0015752082 0.36544573
-0.054095343 0.0015755924 0.3655349
-0.05306077 0.0015760625 0.36564395
-0.05202217 0.0015764293 0.36572906
-0.050977889 0.0015766358 0.36577693
-0.049939997 0.0015770525 0.36587363
-0.048905574 0.0015775991 0.36600044
-0.047868311 0.0015780763 0.36611113
-0.046825539 0.001578389 0.36618367
-0.045788389 0.0015789099 0.36630455
-0.044747498 0.0015793234 0.36640048
-0.043703455 0.0015796429 0.3664746
-0.042656012 0.0015798523 0.36652318
-0.041611608 0.0015801876 0.36660096
-0.04057277 0.0015807573 0.36673313
-0.039527513 0.0015811005 0.36681277
-0.038482025 0.001581453 0.36689454
-0.03743593 0.0015817999 0.36697501
-0.036389463 0.0015821506 0.36705637
-0.035345003 0.0015826122 0.36716345
-0.034296669 0.0015829231 0.3672356
-0.033249334 0.0015833016 0.3673234
-0.032201495 0.0015836802 0.36741123
-0.031155376 0.0015841717 0.36752525
-0.030108182 0.0015846412 0.36763418
-0.029059611 0.0015850697 0.3677336
-0.028009392 0.0015854373 0.36781889
-0.02695854 0.0015857965 0.36790222
-0.025906753 0.0015861277 0.36797905
-0.024854723 0.0015864717 0.36805886
-0.023802169 0.0015868112 0.36813763
-0.022752538 0.0015873865 0.36827108
-0.021700526 0.0015878434 0.36837709
-0.020644981 0.0015880755 0.36843094
-0.019590842 0.0015884467 0.36851704
-0.018535484 0.0015887558 0.36858875
-0.017482292 0.0015892992 0.36871484
-0.016428728 0.0015898768 0.36884886
-0.015374398 0.001590455 0.36898297
-0.014316629 0.0015907366 0.3690483
-0.013256101 0.0015907321 0.36904728
-0.012197821 0.0015910201 0.3691141
-0.011139682 0.001591383 0.36919829
-0.010081655 0.0015918404 0.36930439
-0.009022193 0.0015921518 0.36937663
-0.0079624606 0.0015924922 0.36945561
-0.0069020158 0.0015927729 0.36952072
-0.0058411919 0.0015930523 0.36958554
-0.0047805072 0.0015935024 0.36968997
-0.0037190402 0.0015938744 0.36977628
-0.0026569595 0.0015941757 0.36984617
-0.0015941903 0.0015941903 0.36984956
-0.00053138717 0.0015941615 0.36984289
0.00053134904 0.0015940471 0.36981633
0.0015939808 0.0015939808 0.36980096
0.0026580547 0.0015948329 0.36999863
0.0037255578 0.0015966676 0.3704243
0.004789202 0.0015964006 0.37036237
0.0058524902 0.0015961337 0.37030044
0.0069164946 0.0015961141 0.37029588
0.0079853535 0.0015970706 0.37051779
-0.073156148 0.0025941895 0.36110866
-0.072102472 0.0025936139 0.36102855
-0.071097903 0.0025948139 0.36119556
-0.070254229 0.0026020084 0.36219704
-0.069283903 0.0026046578 0.36256585
-0.068346106 0.0026086301 0.36311877
-0.067418128 0.0026131058 0.36374179
-0.066421725 0.0026150285 0.36400944
-0.065391831 0.0026156732 0.36409917
-0.064370602 0.0026166912 0.36424085
-0.063346438 0.0026176213 0.36437035
-0.062339675 0.002619314 0.36460596
-0.061319161 0.002620477 0.36476785
-0.060292352 0.0026214067 0.36489725
-0.059265453 0.002622365 0.36503068
-0.058240019 0.0026234242 0.36517811
-0.057212532 0.0026244279 0.36531782
-0.056172114 0.0026248652 0.36537868
-0.055130996 0.0026252854 0.36543718
-0.054089785 0.0026257178 0.36549735
-0.053055897 0.0026265297 0.36561036
-0.052019894 0.0026272673 0.36571306
-0.050976753 0.0026276677 0.36576879
-0.049936675 0.0026282461 0.36584929
-0.048900057 0.0026290354 0.36595917
-0.047863886 0.0026298838 0.36607727
-0.046817638 0.0026302044 0.36612189
-0.045781795 0.0026311376 0.3662518
-0.04474695 0.0026321737 0.36639601
-0.043705139 0.0026328396 0.36648872
-0.042658363 0.0026332324 0.36654338
-0.041613262 0.0026337507 0.36661553
-0.040573683 0.0026346545 0.36674136
-0.039529718 0.0026353144 0.36683321
-0.038484499 0.0026359246 0.36691815
-0.03743859 0.0026365204 0.36700109
-0.036391731 0.002637082 0.36707926
-0.035344817 0.0026376729 0.36716151
-0.034297783 0.0026382909 0.36724752
-0.033250261 0.0026389095 0.36733365
-0.032202248 0.0026395286 0.36741981
-0.031155322 0.0026402816 0.36752462
-0.030107342 0.002640995 0.36762393
-0.029057659 0.0026416052 0.36770889
-0.028007459 0.0026422131 0.3677935
-0.026956793 0.0026428229 0.36787838
-0.025905976 0.0026434669 0.36796802
-0.024854604 0.0026441067 0.3680571
-0.023802256 0.0026446951 0.368139
-0.022751709 0.0026455475 0.36825764
-0.02169981 0.0026463182 0.36836493
-0.020645458 0.0026468534 0.36843944
-0.019591132 0.0026474502 0.3685225
-0.018537065 0.0026481519 0.36862019
-0.017483594 0.0026490295 0.36874232
-0.016429191 0.0026498695 0.36885926
-0.015373201 0.002650552 0.36895424
-0.014314919 0.002650911 0.36900422
-0.013255886 0.0026511773 0.36904129
-0.012198351 0.0026518155 0.36913013
-0.011140374 0.0026524703 0.36922127
-0.010081595 0.0026530512 0.36930215
-0.009022139 0.0026535701 0.36937439
-0.0079622753 0.0026540917 0.36944699
-0.0069017997 0.0026545385 0.36950916
-0.0058409413 0.0026549734 0.36956972
-0.0047802441 0.002655691 0.36966962
-0.0037186828 0.0026562018 0.36974072
-0.0026565413 0.0026565413 0.36978796
-0.0015940169 0.0026566947 0.36980933
-0.00053138938 0.0026569469 0.36984441
0.00053135824 0.0026567911 0.36982274
0.0015939609 0.0026566014 0.36979634
0.0026579916 0.0026579916 0.36998984
0.0037256433 0.0026611737 0.37043279
0.0047893259 0.0026607364 0.37037194
0.0058526522 0.0026602966 0.37031069
0.0069157323 0.0026598971 0.37025508
0.007985102 0.0026617006 0.37050614
-0.073154658 0.0036317916 0.36110133
-0.072106771 0.0036312761 0.36105007
-0.071101211 0.0036329087 0.3612124
-0.070252419 0.0036427181 0.36218771
-0.069284558 0.0036465556 0.36256927
-0.068344407 0.0036519913 0.36310974
-0.067413732 0.0036581096 0.36371806
-0.066423774 0.0036611531 0.36402068
-0.065392509 0.0036619804 0.36410293
-0.064371176 0.0036634002 0.3642441
-0.06335146 0.0036649604 0.36439922
-0.062336933 0.0036668784 0.36458993
-0.061316807 0.0036685269 0.36475384
-0.060291279 0.0036699038 0.36489075
-0.059265565 0.0036713181 0.36503136
-0.058240041 0.0036727956 0.36517826
-0.057206318 0.0036738003 0.36527815
-0.056180146 0.0036753367 0.36543092
-0.055139847 0.0036759898 0.36549586
-0.054092675 0.0036762012 0.36551687
-0.053058181 0.0036772997 0.3656261
-0.052021783 0.0036783079 0.36572635
-0.050977811 0.0036788112 0.36577639
-0.049937166 0.0036795808 0.36585289
-0.048898354 0.0036805212 0.36594641
-0.04785946 0.0036814969 0.36604342
-0.046820618 0.0036825205 0.36614519
-0.045783769 0.0036837514 0.36626759
-0.044745933 0.0036849591 0.36638767
-0.04370448 0.00368592 0.36648321
-0.042660419 0.0036867028 0.36656103
-0.041614518 0.0036873622 0.36662659
-0.040573668 0.0036885152 0.36674124
-0.039528929 0.0036893669 0.36682591
-0.038482726 0.0036901243 0.36690122
-0.037436839 0.0036909559 0.36698392
-0.036390889 0.0036918295 0.36707076
-0.035345159 0.0036927778 0.36716506
-0.034298323 0.0036936656 0.36725333
-0.033250611 0.0036945124 0.36733752
-0.032202423 0.0036953597 0.36742178
-0.031154269 0.0036962691 0.3675122
-0.030105717 0.0036971932 0.36760408
-0.029056862 0.0036981462 0.36769882
-0.028007085 0.0036990489 0.36778858
-0.026955901 0.0036998296 0.36786619
-0.025905035 0.0037007194 0.36795467
-0.024853835 0.0037016352 0.36804572
-0.023801927 0.003702522 0.3681339
-0.022750545 0.0037035772 0.36823881
-0.021698698 0.0037046559 0.36834607
-0.020645032 0.0037055186 0.36843184
-0.019591454 0.0037064916 0.36852857
-0.01853797 0.0037075938 0.36863819
-0.017482713 0.0037084541 0.36872372
-0.016427375 0.0037094073 0.36881849
-0.015372205 0.0037105323 0.36893034
-0.014314613 0.0037111961 0.36899635
-0.013255452 0.0037115265 0.36902919
-0.012197701 0.0037123438 0.36911047
-0.01113978 0.0037132602 0.36920157
-0.010080698 0.0037139414 0.36926931
-0.009021339 0.0037146688 0.36934164
-0.0079618283 0.0037155198 0.36942625
-0.0069016274 0.0037162609 0.36949992
-0.0058407597 0.0037168472 0.36955822
-0.0047802008 0.003717934 0.36966628
-0.0037189687 0.0037189687 0.36976916
-0.0026563995 0.0037189594 0.36976823
-0.0015942665 0.003719955 0.36986724
-0.00053138647 0.0037197052 0.36984238
0.00053134921 0.0037194446 0.36981648
0.0015940533 0.0037194579 0.36981779
0.0026579273 0.0037210982 0.3699809
0.0037257196 0.0037257196 0.37044039
0.0047894237 0.0037251073 0.37037951
0.0058527784 0.0037244954 0.37031868
0.0069157425 0.0037238612 0.37025562
0.0079855546 0.0037265923 0.37052715
-0.073174357 0.0046707033 0.36119854
-0.072098546 0.0046682511 0.36100888
-0.071096025 0.0046705422 0.36118606
-0.070251666 0.0046834443 0.36218384
-0.069284596 0.004688431 0.36256948
-0.068340607 0.0046951566 0.36308956
-0.067411423 0.0047031227 0.36370561
-0.066424258 0.0047072312 0.36402333
-0.065388896 0.0047080005 0.36408281
-0.06438446 0.0047110585 0.36431929
-0.063367285 0.0047132694 0.36449027
-0.062347546 0.0047153607 0.36465201
-0.061313801 0.0047164462 0.36473596
-0.060288269 0.0047182124 0.36487255
-0.059262659 0.004720035 0.36501348
-0.058235832 0.0047218241 0.36515185
-0.057196174 0.0047226199 0.36521339
-0.056161065 0.0047238278 0.36530679
-0.055129409 0.0047253775 0.36542666
-0.054095559 0.0047267964 0.36553636
-0.053059079 0.0047280369 0.3656323
-0.052022994 0.0047293631 0.36573485
-0.050977338 0.0047298563 0.36577299
-0.049934018 0.0047305911 0.36582983
-0.048904579 0.004732701 0.36599299
-0.047865286 0.0047339294 0.36608797
-0.046825476 0.0047351606 0.36618319
-0.045785315 0.0047364119 0.36627996
-0.044745956 0.004737807 0.36638784
-0.043705985 0.004739203 0.36649582
-0.042654786 0.0047394205 0.36651263
-0.041612558 0.0047406713 0.36660933
-0.040573481 0.0047423546 0.36673954
-0.039528463 0.0047434154 0.36682156
-0.038482219 0.004744383 0.36689639
-0.037436716 0.0047454992 0.3669827
-0.036391433 0.004746709 0.36707625
-0.035345618 0.0047479188 0.36716983
-0.034299269 0.0047491295 0.36726344
-0.033251993 0.0047502848 0.36735278
-0.032204203 0.0047514397 0.3674421
-0.031155832 0.0047525847 0.36753064
-0.030106954 0.0047537298 0.36761919
-0.029057985 0.0047549433 0.36771303
-0.028007293 0.0047559557 0.36779132
-0.026956096 0.0047569582 0.36786887
-0.02590513 0.0047580851 0.36795601
-0.024854055 0.004759287 0.36804897
-0.023801384 0.004760277 0.3681255
-0.022748837 0.0047613843 0.36821115
-0.021697273 0.0047628162 0.36832187
-0.020644844 0.0047641946 0.36842847
-0.019591939 0.0047656065 0.36853766
-0.018537799 0.0047668624 0.36863479
-0.017481683 0.0047677313 0.36870199
-0.016425585 0.0047687185 0.36877832
-0.015373372 0.0047710463 0.36895835
-0.014315231 0.0047717439 0.36901227
-0.013254915 0.0047717695 0.36901426
-0.012197196 0.0047728159 0.36909518
-0.011138759 0.0047737537 0.36916772
-0.010079735 0.0047746114 0.36923403
-0.0090206666 0.0047756471 0.36931413
-0.0079614772 0.0047768867 0.36940998
-0.0069013569 0.0047778622 0.36948544
-0.0058405777 0.0047786543 0.36954668
-0.0047799265 0.0047799265 0.36964506
-0.0037188896 0.0047814292 0.36976129
-0.0026563813 0.0047814865 0.3697657
-0.0015941317 0.004782395 0.36983597
-0.000531358 0.0047822222 0.36982259
0.00053130795 0.0047817715 0.36978775
0.0015940143 0.0047820429 0.36980873
0.0026580542 0.0047844979 0.36999857
0.0037257958 0.0047903089 0.37044796
0.0047894781 0.0047894781 0.37038371
0.005852757 0.0047886195 0.37031731
0.0069158659 0.004787907 0.37026224
0.0079846857 0.0047908113 0.37048683
-0.073190227 0.0057098758 0.36127689
-0.072101295 0.0057058581 0.36102268
-0.071073562 0.0057066362 0.36107191
-0.070250571 0.0057241204 0.36217818
-0.069279917 0.0057299174 0.36254498
-0.068337798 0.0057382882 0.3630746
-0.067413233 0.0057484149 0.36371535
-0.066418216 0.0057527586 0.36399019
-0.065385215 0.005753899 0.36406234
-0.064381912 0.0057577319 0.36430484
-0.063378386 0.0057616718 0.36455414
-0.062355071 0.0057639144 0.36469603
-0.06131297 0.0057644672 0.36473101
-0.060282834 0.0057661841 0.36483964
-0.059255615 0.0057682456 0.36497009
-0.058227032 0.0057702465 0.36509669
-0.057201833 0.0057726619 0.36524951
-0.056165885 0.0057740626 0.36533815
-0.055116646 0.005774125 0.36534208
-0.054095548 0.0057771946 0.3655363
-0.053058978 0.0057787006 0.36563158
-0.052023321 0.005780369 0.36573717
-0.050975781 0.0057807588 0.36576182
-0.049942318 0.0057827951 0.36589065
-0.048908789 0.0057849102 0.36602449
-0.047860913 0.0057853851 0.36605453
-0.046819758 0.0057867114 0.36613846
-0.045782119 0.0057885437 0.36625439
-0.044748355 0.0057909633 0.36640748
-0.043708328 0.00579267 0.36651546
-0.042650837 0.0057920893 0.36647871
-0.041610066 0.0057938066 0.36658737
-0.040572949 0.0057961354 0.36673474
-0.039528858 0.0057975654 0.36682522
-0.038483359 0.0057988623 0.36690727
-0.037437942 0.0058002444 0.36699471
-0.036392301 0.0058016712 0.36708498
-0.035345972 0.00580307 0.36717349
-0.034299742 0.0058045713 0.3672685
-0.033253353 0.0058061411 0.3673678
-0.032205187 0.0058074929 0.36745334
-0.03115637 0.0058088149 0.36753699
-0.030107075 0.0058101374 0.36762068
-0.029057877 0.0058115753 0.36771166
-0.028007494 0.0058128759 0.36779395
-0.02695648 0.0058141425 0.36787409
-0.025905652 0.0058155549 0.36796343
-0.024853785 0.0058168434 0.36804497
-0.023800725 0.0058179549 0.36811531
-0.022747258 0.005819066 0.36818561
-0.021699268 0.0058217552 0.36835575
-0.020642933 0.0058223656 0.36839437
-0.01958975 0.0058239796 0.36849651
-0.018537 0.0058259144 0.36861891
-0.017480824 0.0058269417 0.3686839
-0.01642552 0.0058284099 0.36877683
-0.015370185 0.0058300705 0.36888188
-0.014313851 0.005831569 0.36897668
-0.013254041 0.005831778 0.36898991
-0.012196464 0.0058330917 0.36907303
-0.011138307 0.0058343513 0.36915272
-0.010079327 0.0058354 0.36921909
-0.0090207774 0.0058369739 0.36931866
-0.0079615703 0.005838485 0.3694143
-0.0069009657 0.0058392789 0.36946452
-0.0058402889 0.0058402889 0.36952841
-0.0047795372 0.0058416566 0.36961496
-0.0037184951 0.0058433493 0.36972207
-0.0026564072 0.0058440957 0.3697693
-0.0015940828 0.0058449702 0.36982462
-0.00053132419 0.005844566 0.36979905
0.00053131266 0.0058444394 0.36979103
0.0015940483 0.005844844 0.36981663
0.0026578093 0.0058471807 0.36996448
0.0037257206 0.005854704 0.37044048
0.0047894176 0.0058537326 0.37037903
0.0058528269 0.0058528269 0.37032172
0.0069159996 0.0058519994 0.37026939
0.0079840878 0.0058549978 0.37045908
-0.073187672 0.0067477995 0.36126429
-0.072101258 0.006743283 0.36102247
-0.071079917 0.0067448099 0.36110422
-0.070245847 0.0067644147 0.36215383
-0.069278851 0.0067716171 0.36253944
-0.068333991 0.0067812358 0.36305439
-0.067410827 0.0067933393 0.36370239
-0.066413246 0.0067982059 0.36396295
-0.065386735 0.0068002203 0.3640708
-0.064375766 0.0068039428 0.36427009
-0.063363694 0.0068076691 0.36446959
-0.062348999 0.0068112351 0.3646605
-0.061321024 0.0068134475 0.36477894
-0.0602911 0.0068155159 0.36488968
-0.059255503 0.0068170046 0.3649694
-0.058218326 0.0068183625 0.36504209
-0.057192195 0.0068210876 0.36518797
-0.05616466 0.0068237437 0.36533019
-0.055132072 0.006825876 0.36544433
-0.054096818 0.006827754 0.36554489
-0.053058848 0.0068293563 0.36563069
-0.052020978 0.0068310378 0.36572069
-0.050976671 0.0068319249 0.36576819
-0.049946617 0.0068347999 0.36592212
-0.048918009 0.0068380013 0.36609352
-0.047869127 0.0068384469 0.36611736
-0.046820112 0.0068388926 0.36614123
-0.045779716 0.0068406472 0.36623517
-0.044745747 0.0068434672 0.36638615
-0.043708704 0.0068459418 0.36651862
-0.042656161 0.0068460507 0.36652446
-0.041611884 0.006847525 0.3666034
-0.040572576 0.0068499157 0.36673138
-0.039529253 0.0068517374 0.36682892
-0.038484499 0.006853404 0.36691815
-0.037438612 0.006854957 0.3670013
-0.036392279 0.0068565165 0.36708477
-0.03534605 0.0068581891 0.36717433
-0.034299508 0.0068599014 0.367266
-0.033252418 0.0068616103 0.36735749
-0.032203831 0.0068631116 0.36743787
-0.03115489 0.0068646367 0.36751953
-0.030106088 0.0068663005 0.36760861
-0.029057145 0.0068680523 0.36770239
-0.028007666 0.006869805 0.36779621
-0.026956754 0.0068713296 0.36787784
-0.025904661 0.0068726651 0.36794934
-0.024852155 0.0068740002 0.36802083
-0.023799201 0.0068753245 0.36809173
-0.022746472 0.0068768403 0.36817288
-0.021694783 0.0068788338 0.36827961
-0.020641075 0.0068803583 0.36836123
-0.019588249 0.0068823574 0.36846825
-0.018536752 0.0068850797 0.36861399
-0.017479915 0.0068860273 0.36866474
-0.016426157 0.0068883882 0.36879113
-0.015371216 0.0068905451 0.36890662
-0.014314557 0.006892194 0.36899489
-0.013253166 0.0068916464 0.36896557
-0.01219584 0.0068933009 0.36905414
-0.011137875 0.0068948749 0.36913842
-0.010079373 0.0068964129 0.36922076
-0.0090208454 0.0068982933 0.36932144
-0.0079611484 0.0068996623 0.36939472
-0.0069005755 0.0069005755 0.36944363
-0.0058401469 0.006901992 0.36951944
-0.004779283 0.0069034086 0.36959529
-0.0037181007 0.006905044 0.36968285
-0.002656407 0.0069066584 0.36976928
-0.0015941103 0.0069078109 0.369831
-0.00053130946 0.006907023 0.3697888
0.00053129037 0.0069067748 0.3697755
0.0015939743 0.0069072223 0.36979946
0.0026576787 0.0069099646 0.3699463
0.0037256025 0.0069189761 0.37042874
0.0047891275 0.0069176285 0.37035659
0.0058528543 0.0069170101 0.37032348
0.0069161332 0.0069161332 0.37027654
0.0079850126 0.0069203442 0.370502
-0.073228866 0.0077903052 0.36146763
-0.072104044 0.0077810124 0.36103645
-0.071085304 0.0077830628 0.36113158
-0.070242956 0.0078047728 0.36213893
-0.069278955 0.0078134164 0.36253998
-0.068332598 0.0078243427 0.36304697
-0.067409471 0.0078383107 0.36369506
-0.066412449 0.0078439899 0.3639586
-0.065389343 0.0078467214 0.36408532
-0.06437733 0.0078508938 0.36427894
-0.063364238 0.0078550708 0.36447275
-0.062348165 0.0078590121 0.36465561
-0.061327174 0.007862458 0.3648155
-0.060305279 0.0078659058 0.36497548
-0.05926745 0.0078673605 0.36504298
-0.058228455 0.00786871 0.3651056
-0.057196625 0.0078710951 0.36521626
-0.056164354 0.0078735072 0.36532819
-0.055126753 0.0078752507 0.36540908
-0.054092355 0.0078775277 0.36551473
-0.053057365 0.0078798067 0.36562046
-0.05202017 0.0078818435 0.365715
-0.050981354 0.0078837145 0.36580181
-0.049939521 0.0078851879 0.36587015
-0.048912339 0.0078890873 0.36605108
-0.047878452 0.0078920526 0.36618868
-0.046829592 0.0078926282 0.36621538
-0.045785554 0.0078940606 0.36628187
-0.044740252 0.0078953383 0.36634114
-0.04370366 0.0078982515 0.36647633
-0.042658158 0.0078996588 0.36654159
-0.041613013 0.0079012047 0.36661336
-0.040571894 0.0079036159 0.36672521
-0.039528236 0.0079056472 0.36681947
-0.038482986 0.0079074632 0.36690372
-0.037438545 0.0079095522 0.36700064
-0.036392301 0.0079113692 0.36708498
-0.035346612 0.00791342 0.36718014
-0.034299549 0.0079152808 0.36726645
-0.033252075 0.0079171602 0.36735368
-0.032203786 0.0079189641 0.36743736
-0.031154981 0.0079207579 0.3675206
-0.030106297 0.0079227099 0.36761117
-0.029057439 0.007924756 0.36770612
-0.028007494 0.0079266494 0.36779395
-0.026955841 0.0079281889 0.36786538
-0.025903612 0.0079296771 0.36793447
-0.024850989 0.0079311663 0.36800355
-0.023798263 0.0079327542 0.36807722
-0.022745727 0.0079345554 0.36816081
-0.0216929 0.0079364264 0.36824763
-0.020639881 0.0079384157 0.36833993
-0.019588744 0.0079413829 0.36847758
-0.018536502 0.0079442151 0.36860901
-0.017479008 0.0079450039 0.36864561
-0.016421266 0.0079457741 0.36868134
-0.015368451 0.0079491986 0.36884025
-0.014314117 0.0079522869 0.36898354
-0.013252392 0.0079514356 0.36894402
-0.012195135 0.0079533486 0.3690328
-0.011137437 0.0079553118 0.36912391
-0.010079137 0.0079572136 0.36921212
-0.0090203006 0.0079590892 0.36929914
-0.0079607032 0.0079607032 0.36937407
-0.0069003291 0.0079619186 0.36943042
-0.0058399038 0.0079635056 0.36950406
-0.0047790837 0.0079651391 0.36957988
-0.0037178348 0.0079667885 0.36965641
-0.0026562256 0.0079686763 0.369744
-0.0015941067 0.0079705333 0.36983016
-0.00053126301 0.0079689454 0.36975649
0.00053119793 0.0079679694 0.36971119
0.0015935119 0.0079675596 0.36969218
0.0026588622 0.007976586 0.37011102
0.0037253359 0.0079828631 0.37040225
0.0047887922 0.0079813208 0.37033069
0.0058525149 0.0079807024 0.37030199
0.0069163558 0.0079804109 0.37028846
0.0079864869 0.0079864869 0.37057042
-0.072097562 0.0088176876 0.36100397
-0.071096219 0.0088221589 0.36118704
-0.07024128 0.008845198 0.36213028
-0.069277212 0.0088549824 0.36253086
-0.068331443 0.0088674389 0.36304083
-0.067409009 0.008883358 0.36369258
-0.066412702 0.0088898893 0.36396
-0.065389335 0.0088929497 0.36408529
-0.064377435 0.0088976938 0.36427951
-0.063364334 0.0089024277 0.36447331
-0.062347334 0.0089067621 0.36465076
-0.061325554 0.0089105507 0.36480588
-0.06029598 0.0089133186 0.36491922
-0.059269473 0.0089166462 0.36505544
-0.058237102 0.0089191953 0.36515981
-0.057200998 0.0089212563 0.36524418
-0.056164693 0.008923362 0.3653304
-0.055126801 0.0089252917 0.36540937
-0.054090496 0.0089275576 0.36550215
-0.053048886 0.0089290207 0.36556205
-0.052011259 0.0089312261 0.36565235
-0.050976884 0.0089340927 0.36576971
-0.04994164 0.0089369249 0.36588567
-0.048905272 0.0089396732 0.36599818
-0.047867361 0.0089422548 0.36610386
-0.046827365 0.0089445524 0.36619794
-0.045778189 0.0089451633 0.36622295
-0.044737041 0.0089474078 0.36631486
-0.043700982 0.0089508034 0.36645386
-0.042658161 0.0089529473 0.36654165
-0.041614842 0.0089550922 0.36662945
-0.040571868 0.0089574251 0.36672497
-0.039526954 0.0089594433 0.36680758
-0.038481563 0.0089614596 0.36689013
-0.037438139 0.0089640608 0.36699665
-0.036392778 0.008966337 0.36708981
-0.035347227 0.0089686997 0.36718655
-0.034300324 0.0089708539 0.36727473
-0.033252995 0.0089730304 0.36736387
-0.032205004 0.008975165 0.36745125
-0.031156553 0.0089773117 0.36753914
-0.030107254 0.0089793568 0.36762285
-0.029058073 0.0089815864 0.36771414
-0.028006993 0.0089833755 0.36778739
-0.026955498 0.0089851664 0.3678607
-0.025903286 0.008986854 0.36792982
-0.024851009 0.0089886636 0.36800388
-0.023798499 0.0089905439 0.36808088
-0.02274595 0.0089925844 0.36816442
-0.021692973 0.0089946473 0.36824888
-0.020639628 0.0089967605 0.3683354
-0.019587371 0.0089996038 0.36845177
-0.01853459 0.0090025151 0.36857098
-0.017478291 0.009003968 0.36863047
-0.016420595 0.0090048425 0.36866626
-0.015367598 0.009008592 0.36881977
-0.014312865 0.0090118041 0.36895129
-0.01325276 0.0090118768 0.36895427
-0.012194238 0.0090131322 0.36900565
-0.011137096 0.0090157446 0.36911261
-0.01007826 0.0090173902 0.36917999
-0.009019481 0.009019481 0.36926559
-0.0079600168 0.009021353 0.36934221
-0.0069000842 0.0090231868 0.36941731
-0.0058396501 0.0090249134 0.369488
-0.0047788387 0.009026696 0.36956096
-0.0037175987 0.0090284543 0.36963296
-0.0026560437 0.0090305489 0.3697187
-0.0015937897 0.0090314746 0.36975661
-0.00053122401 0.0090308087 0.36972934
0.00053114933 0.0090295393 0.36967736
0.0015933292 0.009028866 0.3696498
0.0026587578 0.0090397764 0.3700965
0.0037252451 0.009047024 0.37039322
0.004789277 0.0090464121 0.37036818
0.0058537405 0.0090466896 0.37037954
0.0069186236 0.0090474309 0.37040988
0.007987991 0.0090530561 0.37064019
-0.072104417 0.0098559996 0.3610383
-0.071093902 0.0098597379 0.36117524
-0.070239596 0.0098855728 0.36212161
-0.069274738 0.0098963911 0.36251789
-0.068331234 0.0099106366 0.36303973
-0.067408554 0.0099283922 0.36369014
-0.066417649 0.0099364985 0.36398709
-0.065394431 0.0099399537 0.36411366
-0.064370476 0.009943407 0.36424014
-0.063364439 0.0099497885 0.36447391
-0.062344674 0.0099541917 0.3646352
-0.061315842 0.0099572735 0.36474809
-0.060286716 0.0099604139 0.36486313
-0.05926232 0.0099644614 0.36501139
-0.058229472 0.009967207 0.36511198
-0.057191532 0.0099691665 0.36518374
-0.056153543 0.0099711902 0.36525789
-0.055121787 0.0099744182 0.36537614
-0.054092489 0.0099782264 0.36551562
-0.053055502 0.0099807382 0.36560765
-0.052014399 0.0099825617 0.36567444
-0.050972916 0.0099843852 0.36574125
-0.049932972 0.0099865943 0.36582217
-0.048896052 0.0099895159 0.36592919
-0.047858525 0.0099924393 0.36603627
-0.046820849 0.0099954624 0.36614701
-0.045784593 0.0099989343 0.36627418
-0.044741224 0.01000098 0.3663491
-0.043707982 0.010005441 0.36651257
-0.042660408 0.010006762 0.36656094
-0.041616682 0.010009076 0.36664566
-0.040573362 0.010011609 0.36673847
-0.039529141 0.01001405 0.36682788
-0.038483933 0.010016366 0.36691272
-0.03743824 0.010018683 0.36699763
-0.036393281 0.010021338 0.36709487
-0.035347763 0.010023993 0.36719212
-0.03430067 0.01002635 0.36727846
-0.033252984 0.010028678 0.36736375
-0.032204859 0.010031022 0.36744961
-0.031156534 0.01003346 0.36753893
-0.030107837 0.010035946 0.36762998
-0.029057598 0.010038079 0.36770812
-0.028006529 0.010040076 0.36778128
-0.026955044 0.010042075 0.36785451
-0.025903363 0.010044161 0.36793092
-0.024851261 0.010046255 0.3680076
-0.023798598 0.010048296 0.3680824
-0.022745514 0.010050343 0.36815739
-0.021693286 0.010052986 0.36825418
-0.020639906 0.010055338 0.36834034
-0.019586485 0.010057924 0.36843508
-0.018532678 0.010060597 0.36853299
-0.017477347 0.010062715 0.36861056
-0.01642048 0.010064165 0.3686637
-0.015367801 0.01006856 0.36882466
-0.014311649 0.01007116 0.36891994
-0.01325221 0.01007168 0.36893895
-0.012193358 0.010072774 0.36897904
-0.011136806 0.010076158 0.36910298
