# .PCD v0.7 - Point Cloud Data file format
VERSION 0.7
FIELDS x y z
SIZE 4 4 4
TYPE F F F
COUNT 1 1 1
WIDTH 1387
HEIGHT 1
VIEWPOINT 0 0 0 1 0 0 0
POINTS 1387
DATA ascii
-0.078466624 0.14903392 0.3665261
-0.077419907 0.1490465 0.366557
-0.076373316 0.14905965 0.36658937
-0.075314105 0.14904819 0.3665612
-0.074263379 0.14905344 0.36657411
-0.073214702 0.14906304 0.36659768
-0.072159961 0.14906037 0.36659113
-0.071113266 0.14907447 0.36662582
-0.07006228 0.14907989 0.36663914
-0.069010094 0.14908288 0.3666465
-0.067964867 0.14910121 0.36669159
-0.066920489 0.14912203 0.36674279
-0.065874435 0.14913973 0.3667863
-0.064823776 0.14914739 0.36680517
-0.063771851 0.14915234 0.36681733
-0.062718377 0.14915378 0.36682087
-0.061666425 0.14915895 0.3668336
-0.060614754 0.149165 0.36684847
-0.059562027 0.14916861 0.36685735
-0.058507014 0.14916652 0.36685222
-0.05745196 0.14916426 0.36684665
-0.056397393 0.1491632 0.36684403
-0.055343129 0.1491629 0.36684331
-0.054288898 0.14916269 0.36684281
-0.053234424 0.1491618 0.3668406
-0.052181128 0.14916424 0.36684659
-0.051127978 0.14916719 0.36685386
-0.050074089 0.14916807 0.36685604
-0.049021907 0.14917418 0.36687106
-0.047970001 0.14918144 0.36688888
-0.04691847 0.1491902 0.36691043
-0.045866769 0.1491988 0.36693159
-0.044816408 0.14921227 0.36696473
-0.043766081 0.14922652 0.36699975
-0.0427121 0.14922869 0.36700511
-0.041663192 0.14924917 0.36705545
-0.040626071 0.149314 0.36721492
-0.039591338 0.14939132 0.36740506
-0.038561128 0.1494904 0.36764872
-0.037540536 0.14963341 0.36800045
-0.036516149 0.14976913 0.36833423
-0.035491161 0.14991044 0.36868173
-0.03447568 0.15010181 0.3691524
-0.033459403 0.15030175 0.36964414
-0.03245027 0.15054797 0.37024966
-0.031438768 0.15079951 0.3708683
-0.030428683 0.15107574 0.37154764
-0.029427292 0.15141679 0.3723864
-0.028430941 0.1518105 0.37335464
-0.027437773 0.15225273 0.37444228
-0.026442967 0.15272163 0.37559545
-0.025453612 0.15326324 0.37692747
-0.024474464 0.15391719 0.37853575
-0.023515828 0.15476696 0.38062564
-0.022628274 0.15619028 0.38412607
-0.021800514 0.15819348 0.38905263
-0.020991873 0.16055946 0.39487138
-0.1221563 0.15202858 0.3712672
-0.12053859 0.151337 0.3695783
-0.11906344 0.15081368 0.36830032
-0.11777147 0.15051511 0.36757118
-0.11649485 0.15023091 0.36687714
-0.11530434 0.15005359 0.36644411
-0.11411165 0.14987014 0.36599609
-0.11299599 0.14978538 0.36578912
-0.11187835 0.14969638 0.36557177
-0.110808 0.14966957 0.36550629
-0.10974002 0.14964548 0.36544746
-0.10867384 0.14962341 0.36539355
-0.10762544 0.14962561 0.36539894
-0.10658898 0.14964463 0.36544538
-0.105553 0.1496647 0.3654944
-0.10450985 0.14967492 0.36551934
-0.10346744 0.1496864 0.36554739
-0.10243069 0.14970639 0.3655962
-0.10139414 0.14972709 0.36564678
-0.10035744 0.14974801 0.36569786
-0.099324033 0.14977434 0.36576214
-0.098289713 0.14979984 0.3658244
-0.09724246 0.14980595 0.36583933
-0.096196212 0.14981377 0.36585844
-0.095169082 0.14985187 0.36595148
-0.094135121 0.14987993 0.36602002
-0.093090706 0.14989181 0.36604902
-0.092071392 0.14994484 0.36617851
-0.091018237 0.14994334 0.36617485
-0.08996962 0.14994936 0.36618957
-0.088923641 0.14995998 0.3662155
-0.087878972 0.14997309 0.36624753
-0.086828858 0.14997712 0.36625734
-0.0857848 0.14999183 0.36629328
-0.084743612 0.15001199 0.36634248
-0.083697654 0.1500241 0.36637208
-0.082645692 0.15002562 0.3663758
-0.081598304 0.15003559 0.36640015
-0.080553345 0.15005034 0.36643618
-0.079507172 0.15006322 0.3664676
-0.078458875 0.15007234 0.36648989
-0.077411905 0.15008432 0.36651912
-0.076364726 0.15009618 0.36654812
-0.075321734 0.15011674 0.36659831
-0.074267596 0.15011536 0.36659494
-0.07320407 0.15009469 0.36654446
-0.072154589 0.15010262 0.36656383
-0.071107686 0.15011622 0.36659706
-0.070057198 0.15012257 0.36661255
-0.069010437 0.15013722 0.36664832
-0.06796369 0.15015234 0.36668524
-0.06691651 0.15016696 0.36672097
-0.065869413 0.15018226 0.36675835
-0.064819366 0.15019122 0.36678019
-0.063769355 0.15020055 0.36680299
-0.062717184 0.15020503 0.36681393
-0.061665338 0.15021044 0.36682713
-0.060613129 0.15021515 0.36683863
-0.059558976 0.15021512 0.36683857
-0.058504589 0.15021449 0.36683702
-0.057450093 0.15021354 0.36683473
-0.056395676 0.15021278 0.36683285
-0.055341423 0.15021244 0.36683202
-0.054287173 0.15021208 0.36683115
-0.053234123 0.15021509 0.36683851
-0.052181173 0.15021853 0.36684689
-0.05112794 0.15022127 0.36685359
-0.050075654 0.15022697 0.36686748
-0.049024656 0.15023686 0.36689165
-0.047973186 0.1502457 0.36691323
-0.046921588 0.15025453 0.36693481
-0.045869507 0.15026218 0.36695349
-0.04481715 0.15026927 0.36697081
-0.043765061 0.15027761 0.36699119
-0.042709403 0.15027381 0.36698192
-0.041656498 0.15027978 0.36699647
-0.040617224 0.15033647 0.36713493
-0.039584007 0.15041922 0.36733702
-0.038549896 0.15050301 0.36754164
-0.037521292 0.15061364 0.36781177
-0.036495507 0.15074232 0.36812603
-0.035469592 0.15087812 0.36845767
-0.034455385 0.1510736 0.36893508
-0.033440057 0.15127644 0.36943042
-0.032426905 0.15150274 0.36998308
-0.031416941 0.1517598 0.37061083
-0.030403359 0.15201679 0.37123841
-0.029398963 0.15234008 0.3720279
-0.028399641 0.15271504 0.37294361
-0.02740491 0.15314509 0.37399381
-0.026404785 0.15357885 0.37505311
-0.025416065 0.15411869 0.37637144
-0.024430487 0.15472642 0.37785557
-0.023463465 0.15551366 0.37977809
-0.022521548 0.15655223 0.38231432
-0.021676252 0.15840337 0.38683501
-0.020868998 0.16074769 0.39256003
-0.020036597 0.16315515 0.39843926
-0.12260787 0.15366139 0.37263966
-0.1206887 0.1525888 0.37003854
-0.11917168 0.1520101 0.36863515
-0.11783329 0.15165092 0.36776412
-0.11654413 0.15134917 0.36703235
-0.11533452 0.15114614 0.36654001
-0.11415394 0.15097779 0.36613172
-0.11302009 0.15086868 0.36586714
-0.11190046 0.15077667 0.36564401
-0.11080931 0.15072167 0.36551061
-0.10973664 0.15069099 0.36543623
-0.10867021 0.15066837 0.36538136
-0.10761828 0.1506656 0.36537462
-0.10657777 0.15067892 0.36540693
-0.10554335 0.1507012 0.36546096
-0.10450373 0.15071642 0.36549792
-0.1034616 0.15072833 0.36552677
-0.1024196 0.15074064 0.36555663
-0.10138062 0.15075772 0.36559802
-0.10034141 0.15077479 0.36563945
-0.099305339 0.15079699 0.3656933
-0.098270759 0.15082197 0.36575386
-0.097234443 0.15084478 0.36580917
-0.096183658 0.15084541 0.36581069
-0.095148072 0.15087014 0.36587068
-0.09412653 0.15091796 0.36598665
-0.093081221 0.1509283 0.36601174
-0.092064612 0.15098596 0.36615154
-0.09101361 0.15098789 0.36615625
-0.089964278 0.15099268 0.36616784
-0.088917039 0.15100113 0.36618832
-0.087871052 0.15101193 0.36621451
-0.086821809 0.15101734 0.36622763
-0.085774362 0.15102603 0.3662487
-0.0847333 0.15104632 0.36629793
-0.083688281 0.15105997 0.36633104
-0.08263693 0.15106241 0.36633694
-0.081585549 0.15106486 0.36634287
-0.080542862 0.15108366 0.3663885
-0.079494961 0.15109307 0.3664113
-0.078456961 0.15112181 0.36648098
-0.077409625 0.15113308 0.36650831
-0.07635738 0.15113495 0.36651286
-0.07530345 0.15113351 0.36650935
-0.074250177 0.15113334 0.36650896
-0.073199078 0.15113766 0.36651945
-0.072149247 0.15114477 0.36653668
-0.071102351 0.15115833 0.36656955
-0.070055626 0.15117267 0.36660433
-0.069008306 0.15118614 0.36663699
-0.067960776 0.15119956 0.36666954
-0.066912539 0.1512118 0.36669922
-0.065864399 0.15122466 0.36673042
-0.064815313 0.15123573 0.36675724
-0.063765667 0.15124583 0.36678177
-0.062715679 0.15125546 0.36680511
-0.061663624 0.15126035 0.36681694
-0.060610808 0.15126351 0.3668246
-0.059557099 0.15126449 0.36682701
-0.058502849 0.15126413 0.36682612
-0.057448413 0.15126325 0.366824
-0.056394003 0.15126242 0.36682197
-0.055339739 0.15126196 0.36682084
-0.054287527 0.15126719 0.36683354
-0.053235285 0.15127255 0.36684653
-0.052182652 0.15127698 0.36685729
-0.05112939 0.15127975 0.366864
-0.050077442 0.15128659 0.3668806
-0.049026966 0.15129828 0.36690894
-0.04797633 0.15130997 0.36693728
-0.046924707 0.151319 0.36695918
-0.045872591 0.15132682 0.36697817
-0.04481845 0.15132818 0.36698145
-0.043761581 0.15132016 0.36696202
-0.042705063 0.15131301 0.36694464
-0.041652754 0.15132077 0.36696348
-0.040608373 0.15135849 0.36705494
-0.039574876 0.15143986 0.36725229
-0.03853986 0.15151973 0.36744598
-0.037503686 0.15159941 0.36763921
-0.036479957 0.15173547 0.36796916
-0.035457183 0.15188375 0.36832875
-0.034435611 0.15204647 0.36872336
-0.033421673 0.15225428 0.36922732
-0.032406215 0.15246858 0.36974701
-0.031395957 0.1527227 0.37036327
-0.03038273 0.1529797 0.37098652
-0.029373249 0.15327495 0.37170252
-0.028367814 0.15361439 0.37252566
-0.027375124 0.15405217 0.37358731
-0.026376897 0.15449326 0.37465698
-0.025382822 0.15499723 0.37587917
-0.024389122 0.15554839 0.37721577
-0.023414103 0.15627553 0.37897912
-0.022454036 0.15717825 0.38116831
-0.021564696 0.15869404 0.38484418
-0.020751234 0.16096227 0.3903448
-0.019919949 0.16334358 0.39611965
-0.12328134 0.15558213 0.37468654
-0.12095367 0.15398948 0.37085095
-0.11933534 0.15327962 0.3691414
-0.11791493 0.15281352 0.36801893
-0.11663382 0.15252115 0.36731479
-0.11539788 0.15228304 0.36674139
-0.11419871 0.15208952 0.36627531
-0.11304264 0.15195034 0.36594012
-0.11191535 0.15184759 0.36569268
-0.11081731 0.15178296 0.36553702
-0.10973896 0.15174431 0.36544394
-0.10866859 0.15171604 0.36537588
-0.10761668 0.15171327 0.3653692
-0.10657611 0.15172659 0.36540127
-0.10554224 0.15174979 0.36545715
-0.10448991 0.15174665 0.36544958
-0.10344309 0.15175155 0.36546138
-0.10240884 0.15177515 0.36551824
-0.10136978 0.15179206 0.36555895
-0.10032985 0.15180799 0.36559731
-0.099292539 0.15182827 0.36564615
-0.098254077 0.1518472 0.36569175
-0.097220041 0.15187347 0.36575499
-0.096175194 0.15188323 0.36577851
-0.095134094 0.15189919 0.36581695
-0.094106726 0.15193768 0.36590964
-0.093072012 0.15196504 0.36597553
-0.092031896 0.15198411 0.36602145
-0.091001749 0.15202026 0.36610854
-0.089953937 0.15202741 0.36612573
-0.088901959 0.15202761 0.36612621
-0.08786422 0.15205246 0.36618605
-0.086817726 0.15206257 0.3662104
-0.085767791 0.15206683 0.36622065
-0.084726125 0.15208603 0.36626691
-0.083687194 0.15211068 0.36632627
-0.082637094 0.15211542 0.36633769
-0.081581905 0.15211079 0.36632651
-0.080528468 0.15210932 0.36632302
-0.079495542 0.1521471 0.36641398
-0.078453235 0.15216769 0.36646357
-0.077401027 0.15216936 0.3664676
-0.076348789 0.15217103 0.36647162
-0.075294942 0.1521695 0.36646792
-0.074246489 0.15217897 0.36649075
-0.073196523 0.15218557 0.36650664
-0.07214573 0.15219064 0.36651883
-0.071098015 0.15220241 0.3665472
-0.07005161 0.15221742 0.36658332
-0.069004759 0.15223187 0.36661816
-0.067957632 0.15224618 0.36665258
-0.066909932 0.15225962 0.36668494
-0.065860868 0.15227033 0.36671075
-0.064810909 0.1522793 0.36673236
-0.063760966 0.15228859 0.36675471
-0.062711366 0.15229903 0.36677986
-0.061661534 0.15230925 0.36680451
-0.060608361 0.15231144 0.36680979
-0.059555121 0.15231355 0.36681482
-0.058501177 0.15231387 0.36681563
-0.057447009 0.15231363 0.36681503
-0.056392979 0.15231375 0.36681533
-0.055340089 0.152317 0.36682317
-0.054288719 0.15232465 0.36684158
-0.053236447 0.15233004 0.36685455
-0.052184109 0.15233544 0.36686754
-0.051131267 0.15233955 0.36687747
-0.050079241 0.15234633 0.36689377
-0.049028724 0.15235808 0.36692208
-0.047978047 0.15236984 0.36695042
-0.046927214 0.15238163 0.36697879
-0.045872256 0.15238026 0.36697549
-0.044815354 0.1523722 0.36695608
-0.043758556 0.15236413 0.36693665
-0.042701971 0.15235642 0.36691809
-0.041648302 0.15235898 0.36692426
-0.040603835 0.15239622 0.36701393
-0.039565533 0.15245919 0.3671656
-0.038529832 0.1525359 0.36735034
-0.037496626 0.15262711 0.36756998
-0.036472801 0.1527629 0.367897
-0.035445821 0.15289317 0.36821073
-0.034418076 0.15302806 0.36853558
-0.033400949 0.15322022 0.36899838
-0.032387801 0.15344384 0.36953691
-0.031375986 0.15368915 0.37012768
-0.030361978 0.15394056 0.37073314
-0.029347433 0.15420742 0.37137583
-0.028342856 0.15454878 0.37219793
-0.027343487 0.15494643 0.37315556
-0.026347181 0.1553946 0.37423488
-0.025349665 0.15587348 0.37538818
-0.024347894 0.15636759 0.37657812
-0.023365026 0.15703471 0.37818477
-0.022398831 0.15788445 0.38023117
-0.021458849 0.15901558 0.38295525
-0.020639364 0.16121016 0.38824046
-0.019804591 0.16352935 0.39382571
-0.018960409 0.16604722 0.39988947
-0.12128462 0.1554794 0.37186566
-0.11949294 0.1545442 0.36962891
-0.11801797 0.15400551 0.36834052
-0.11670404 0.15366912 0.36753595
-0.11544233 0.15339598 0.36688265
-0.11424016 0.15319765 0.36640829
-0.11306521 0.15303244 0.36601317
-0.11193155 0.15292057 0.3657456
-0.11083294 0.1528549 0.36558855
-0.10974864 0.15280791 0.36547616
-0.10866962 0.15276743 0.36537936
-0.10762365 0.15277308 0.36539286
-0.10657594 0.15277635 0.36540067
-0.10552959 0.15278165 0.36541334
-0.10447635 0.15277697 0.36540216
-0.10343091 0.15278374 0.36541834
-0.10239685 0.15280759 0.36547542
-0.10135979 0.15282746 0.36552292
-0.10032336 0.15284868 0.36557364
-0.099292524 0.15287896 0.36564609
-0.09824986 0.1528915 0.36567608
-0.097205222 0.15290119 0.36569926
-0.096162014 0.15291336 0.36572838
-0.095121354 0.15292992 0.36576796
-0.094094589 0.15296941 0.36586243
-0.093063571 0.15300281 0.36594233
-0.092020273 0.15301657 0.3659752
-0.090982668 0.15304022 0.36603177
-0.089937061 0.1530508 0.36605707
-0.088890508 0.15305999 0.36607906
-0.087852128 0.15308365 0.36613566
-0.086808652 0.1530989 0.36617211
-0.085758075 0.15310185 0.36617917
-0.084713489 0.15311569 0.36621228
-0.083674841 0.15314074 0.36627221
-0.08263278 0.15316013 0.36631855
-0.081578955 0.1531579 0.36631325
-0.080526464 0.15315817 0.3663139
-0.079477333 0.15316492 0.36633006
-0.078440085 0.15319507 0.36640215
-0.077390037 0.15320069 0.36641556
-0.076339893 0.15320627 0.36642894
-0.075292073 0.15321673 0.36645395
-0.074244522 0.15322806 0.36648104
-0.073195338 0.15323628 0.36650071
-0.072144434 0.15324108 0.36651221
-0.071095601 0.15325052 0.36653477
-0.070048146 0.15326324 0.3665652
-0.069000892 0.15327679 0.36659759
-0.067953505 0.15329047 0.36663032
-0.066905856 0.15330397 0.36666259
-0.065856934 0.15331495 0.36668885
-0.064806476 0.15332264 0.36670724
-0.063756555 0.15333188 0.36672935
-0.062707394 0.15334329 0.36675665
-0.061656851 0.15335165 0.36677665
-0.060604833 0.15335657 0.36678842
-0.059551768 0.15335898 0.36679417
-0.058499508 0.15336357 0.36680517
-0.057446752 0.15336701 0.36681339
-0.056392729 0.15336715 0.36681369
-0.055339262 0.15336882 0.36681768
-0.054287594 0.15337563 0.36683398
-0.053236138 0.15338333 0.3668524
-0.052184582 0.15339103 0.36687085
-0.051133294 0.15339988 0.36689201
-0.050081227 0.15340671 0.36690831
-0.049030475 0.15341794 0.36693519
-0.047979768 0.15342981 0.36696357
-0.046924956 0.15342879 0.36696115
-0.045867678 0.15341948 0.36693886
-0.044811379 0.15341307 0.36692354
-0.043755166 0.15340666 0.36690822
-0.042699095 0.15340045 0.36689335
-0.041647106 0.15340896 0.36691371
-0.04060011 0.15343678 0.36698025
-0.03955844 0.15348674 0.36709976
-0.038520973 0.1535562 0.36726588
-0.037493836 0.15367191 0.36754262
-0.036460105 0.15376653 0.36776891
-0.035430621 0.15388523 0.36805284
-0.034398731 0.15400048 0.36832845
-0.03338052 0.1541862 0.36877269
-0.032367893 0.15441076 0.36930975
-0.031353962 0.1546441 0.36986786
-0.030340368 0.15489556 0.37046927
-0.029324751 0.15515459 0.3710888
-0.028317979 0.15548173 0.37187123
-0.027311271 0.1558349 0.37271592
-0.026311519 0.1562582 0.37372833
-0.025316665 0.15674786 0.37489948
-0.02431226 0.15721928 0.37602699
-0.02332465 0.15784821 0.37753123
-0.022350907 0.15863693 0.37941763
-0.021385452 0.15956838 0.38164541
-0.02052141 0.16139811 0.38602164
-0.01969381 0.16373996 0.39162275
-0.018851878 0.16623929 0.39760047
-0.12174594 0.15714344 0.37328011
-0.1197203 0.15590243 0.37033221
-0.11818192 0.15527938 0.3688522
-0.11683373 0.15489721 0.36794439
-0.11549704 0.15452343 0.36705652
-0.1143026 0.15433484 0.36660853
-0.11310897 0.15414385 0.36615485
-0.1119502 0.15399723 0.36580655
-0.11085139 0.15393108 0.36564943
-0.10975995 0.15387399 0.36551383
-0.10868261 0.15383577 0.36542302
-0.10761381 0.15380901 0.36535946
-0.10655242 0.15379241 0.36532003
-0.10550526 0.15379623 0.36532909
-0.10446652 0.15381251 0.3653678
-0.10342125 0.15381943 0.36538419
-0.10238504 0.15384009 0.36543331
-0.101351 0.15386447 0.36549121
-0.1003132 0.15388361 0.36553666
-0.099273577 0.15390031 0.36557633
-0.098231874 0.15391412 0.36560914
-0.09719079 0.1539292 0.36564496
-0.096156023 0.15395473 0.36570561
-0.095110275 0.15396303 0.36572534
-0.094080038 0.15399693 0.36580586
-0.093054384 0.15403917 0.36590621
-0.092012025 0.15405442 0.36594242
-0.090969868 0.15407036 0.36598027
-0.089921437 0.15407592 0.36599347
-0.08887665 0.15408792 0.36602199
-0.087835893 0.15410729 0.36606801
-0.086794227 0.15412551 0.36611128
-0.085745268 0.15413107 0.36612448
-0.084696904 0.15413783 0.36614057
-0.083659738 0.15416543 0.36620611
-0.082616851 0.15418305 0.36624795
-0.081569411 0.15419249 0.36627039
-0.080523476 0.15420508 0.36630031
-0.079474963 0.15421301 0.36631912
-0.07842619 0.15422064 0.36633724
-0.07738103 0.15423565 0.36637291
-0.07633429 0.15424791 0.36640203
-0.075284965 0.15425521 0.36641937
-0.07423792 0.15426745 0.36644843
-0.073191568 0.15428151 0.36648184
-0.07214313 0.15429151 0.36650559
-0.071093455 0.15429913 0.36652368
-0.07004603 0.15431193 0.36655411
-0.068997867 0.15432347 0.36658153
-0.067949779 0.15433554 0.3666102
-0.066901594 0.15434776 0.36663923
-0.065852992 0.15435942 0.36666691
-0.064804539 0.15437178 0.3666963
-0.063754231 0.15438008 0.366716
-0.062703744 0.15438822 0.36673531
-0.061652161 0.15439387 0.36674875
-0.060600404 0.15439929 0.36676162
-0.059548501 0.15440452 0.36677405
-0.058496505 0.15440969 0.36678633
-0.05744445 0.15441489 0.3667987
-0.05639232 0.15442009 0.36681104
-0.055339113 0.15442248 0.3668167
-0.054286465 0.15442654 0.36682636
-0.053235035 0.15443431 0.3668448
-0.052184504 0.15444505 0.36687031
-0.05113415 0.15445676 0.36689815
-0.050083216 0.15446718 0.36692289
-0.049031679 0.15447615 0.36694419
-0.047976609 0.15447414 0.36693943
-0.046920598 0.15446894 0.36692706
-0.04586333 0.15445927 0.36690408
-0.044806845 0.15445183 0.36688644
-0.043751452 0.1544479 0.36687708
-0.042697784 0.15445 0.36688209
-0.04164448 0.15445358 0.36689058
-0.040590163 0.15445347 0.36689034
-0.039545335 0.15449044 0.36697814
-0.038508825 0.15456282 0.36715007
-0.037481625 0.15467769 0.36742294
-0.036447879 0.15477142 0.36764559
-0.035413157 0.15486649 0.3678714
-0.034379408 0.15497179 0.36812156
-0.033365022 0.15517384 0.3686015
-0.032349896 0.15538557 0.36910444
-0.031331316 0.1555945 0.36960071
-0.030318229 0.15584633 0.37019894
-0.029303772 0.15610918 0.37082332
-0.028292112 0.15640733 0.37153155
-0.027285421 0.15675741 0.37236315
-0.026276328 0.15712172 0.37322849
-0.02528302 0.15761542 0.37440124
-0.024280354 0.15809208 0.37553352
-0.023288466 0.15868652 0.37694556
-0.022303786 0.15939048 0.37861773
-0.021326642 0.16022325 0.38059589
-0.020400941 0.1615534 0.38375556
-0.019583318 0.16394036 0.38942555
-0.018741192 0.16639908 0.39526603
-0.12001009 0.15734658 0.37122864
-0.11831927 0.15652101 0.36928087
-0.11692051 0.15607037 0.36821768
-0.11559313 0.15570764 0.3673619
-0.11435506 0.15545966 0.36677682
-0.11316986 0.15527958 0.36635196
-0.11199348 0.15510833 0.36594796
-0.11086984 0.1550076 0.36571029
-0.10977115 0.15494013 0.36555111
-0.10869358 0.15490147 0.36545992
-0.1076209 0.15486911 0.36538354
-0.10655781 0.15485002 0.3653385
-0.10550985 0.15485276 0.36534497
-0.10446574 0.15486127 0.36536506
-0.10342005 0.15486759 0.36537996
-0.10238151 0.15488485 0.36542067
-0.10132915 0.15488134 0.36541241
-0.10029567 0.15490693 0.36547276
-0.099253848 0.15492003 0.36550367
-0.098212086 0.1549335 0.36553547
-0.097179696 0.15496221 0.36560321
-0.096149758 0.15499552 0.36568177
-0.095103078 0.15500225 0.36569768
-0.094065778 0.1550246 0.3657504
-0.093040705 0.15506785 0.36585242
-0.092002466 0.15508987 0.36590439
-0.090952553 0.15509249 0.36591059
-0.089912929 0.15511295 0.36595884
-0.088866346 0.15512173 0.36597955
-0.087824389 0.15513889 0.36602005
-0.086782567 0.15515672 0.3660621
-0.085740581 0.15517467 0.36610445
-0.084695168 0.15518679 0.36613306
-0.083648279 0.15519649 0.36615595
-0.082603268 0.15520996 0.36618772
-0.081558414 0.15522408 0.36622104
-0.080513373 0.15523821 0.36625436
-0.079467386 0.15525085 0.36628419
-0.078418583 0.15525827 0.36630169
-0.077375963 0.1552783 0.36634895
-0.076328754 0.15528953 0.36637545
-0.075279124 0.1552961 0.36639094
-0.074230887 0.15530576 0.36641374
-0.073184818 0.1553203 0.36644804
-0.072138548 0.15533483 0.36648232
-0.071091309 0.15534768 0.36651263
-0.07004334 0.15535928 0.36654001
-0.068995155 0.15537076 0.36656711
-0.067946993 0.15538265 0.36659515
-0.066898532 0.15539423 0.36662245
-0.065848976 0.15540358 0.36664453
-0.064802386 0.15542036 0.36668411
-0.063751735 0.15542778 0.36670163
-0.062699385 0.15543124 0.3667098
-0.061649196 0.15544027 0.36673111
-0.060597662 0.15544617 0.36674502
-0.059546039 0.15545204 0.36675888
-0.058494329 0.1554579 0.36677268
-0.057442345 0.15546323 0.36678526
-0.056390215 0.15546834 0.36679733
-0.055337977 0.15547337 0.36680916
-0.05428559 0.15547815 0.36682045
-0.05323483 0.15548788 0.3668434
-0.052184291 0.15549865 0.36686882
-0.051133558 0.15550928 0.36689389
-0.050082497 0.15551934 0.36691764
-0.049028002 0.15551893 0.36691669
-0.047973119 0.15551725 0.36691272
-0.046916239 0.15550888 0.36689296
-0.045859128 0.15549934 0.36687046
-0.044803821 0.15549561 0.36686167
-0.043750301 0.15549806 0.36686742
-0.042696599 0.15549996 0.36687192
-0.041642569 0.15550074 0.36687374
-0.04058437 0.15548557 0.36683798
-0.039538752 0.1555191 0.36691707
-0.038501449 0.15558805 0.36707973
-0.037469003 0.15568107 0.36729923
-0.036433436 0.15576614 0.36749992
-0.035402298 0.15587579 0.3677586
-0.034367073 0.15597364 0.36798948
-0.033351503 0.15616974 0.36845213
-0.032337174 0.15638469 0.36895928
-0.031315334 0.15657668 0.36941221
-0.030296713 0.15679878 0.36993623
-0.029282941 0.15706305 0.37055972
-0.028265828 0.15732867 0.37118641
-0.02726033 0.1576823 0.37202072
-0.026250746 0.15804021 0.37286514
-0.025249463 0.15848067 0.37390432
-0.024249474 0.15896878 0.37505591
-0.023252066 0.15951999 0.37635639
-0.022260198 0.16016485 0.3778778
-0.021281784 0.1609776 0.37979534
-0.020326404 0.16206187 0.38235345
-0.019465623 0.16406739 0.38708511
-0.018630972 0.16654959 0.39294139
-0.017772013 0.16912077 0.39900759
-0.12039068 0.1589157 0.37240592
-0.11852597 0.15785746 0.36992601
-0.11702542 0.15726945 0.36854807
-0.11567226 0.1568706 0.36761338
-0.11440099 0.15657647 0.36692411
-0.11320766 0.15638454 0.36647433
-0.11203332 0.15621547 0.36607814
-0.11088657 0.15608203 0.36576545
-0.10978704 0.15601316 0.36560404
-0.10869403 0.1559523 0.36546144
-0.107621 0.15591921 0.36538386
-0.10655915 0.1559018 0.36534309
-0.10550743 0.15589905 0.36533663
-0.10446461 0.15590949 0.36536112
-0.10341799 0.15591444 0.36537269
-0.10236609 0.15591143 0.36536565
-0.10131382 0.15590779 0.36535713
-0.10026373 0.15590748 0.36535639
-0.099245101 0.1559566 0.36547148
-0.098198496 0.15596232 0.36548489
-0.097171031 0.1559989 0.36557063
-0.096141905 0.15603359 0.36565191
-0.095095679 0.15604097 0.36566922
-0.094056308 0.15605991 0.3657136
-0.093031853 0.1561043 0.36581761
-0.091985434 0.15611242 0.36583665
-0.090931818 0.15610838 0.36582717
-0.089904837 0.1561505 0.36592591
-0.088857152 0.15615726 0.3659417
-0.087814964 0.15617391 0.36598077
-0.086773284 0.15619192 0.36602294
-0.085733615 0.15621401 0.36607471
-0.084692344 0.15623371 0.36612087
-0.083643734 0.15624018 0.36613604
-0.082595505 0.15624754 0.3661533
-0.081548266 0.156257 0.36617547
-0.080501013 0.15626667 0.36619812
-0.07945583 0.15628067 0.36623093
-0.078411005 0.15629576 0.36626631
-0.077370092 0.15631917 0.36632115
-0.076323852 0.1563323 0.36635193
-0.075273566 0.15633741 0.36636388
-0.07422626 0.15634893 0.36639088
-0.073180206 0.15636346 0.36642495
-0.072133966 0.15637802 0.36645904
-0.071085513 0.15638812 0.36648273
-0.070038274 0.15640126 0.36651352
-0.068991847 0.15641664 0.36654955
-0.067944191 0.15642966 0.36658007
-0.066894159 0.15643753 0.36659852
-0.065844648 0.15644687 0.36662042
-0.06479615 0.156459 0.36664882
-0.063746892 0.15646964 0.36667377
-0.062695123 0.15647438 0.36668488
-0.061645273 0.15648416 0.36670777
-0.060595106 0.15649346 0.36672956
-0.059543524 0.15649936 0.36674339
-0.058491852 0.15650523 0.36675715
-0.05744002 0.15651089 0.36677042
-0.056388106 0.15651652 0.36678362
-0.055335913 0.15652157 0.36679548
-0.054283958 0.15652753 0.36680943
-0.053232767 0.15653597 0.36682919
-0.052182019 0.15654606 0.36685285
-0.05113133 0.15655676 0.36687791
-0.050077934 0.15655944 0.3668842
-0.049023703 0.15655957 0.3668845
-0.047970064 0.15656164 0.36688936
-0.046914313 0.15655676 0.36687791
-0.04585788 0.15654932 0.36686048
-0.044802956 0.1565468 0.36685458
-0.043749161 0.1565482 0.36685789
-0.042695697 0.1565509 0.36686417
-0.041645013 0.15656416 0.36689526
-0.040586546 0.15654811 0.36685765
-0.039537303 0.15656772 0.3669036
-0.03849823 0.15662979 0.36704907
-0.03745807 0.15669079 0.36719203
-0.036418643 0.1567585 0.3673507
-0.035389617 0.15687637 0.36762691
-0.034358244 0.15699075 0.36789495
-0.033338021 0.15716496 0.36830318
-0.032316592 0.15734471 0.36872444
-0.031298392 0.15755291 0.36921233
-0.0302753 0.15775025 0.36967477
-0.02926204 0.15801501 0.37029523
-0.028245043 0.15827882 0.37091345
-0.027234945 0.1586035 0.3716743
-0.026226113 0.15896235 0.37251523
-0.025218064 0.15935671 0.37343937
-0.024221936 0.15986478 0.37463
-0.023215428 0.16034843 0.37576339
-0.022224583 0.16099271 0.3772732
-0.021232042 0.16169018 0.37890765
-0.020260373 0.16263056 0.38111138
-0.019367855 0.16435009 0.38514096
-0.018522829 0.16670546 0.39066055
-0.017668387 0.16927454 0.39668101
-0.12108015 0.16090207 0.37453866
-0.11876201 0.15923695 0.37066269
-0.11713521 0.15847705 0.36889383
-0.11574924 0.15803206 0.36785802
-0.11445602 0.15770669 0.36710063
-0.11325208 0.1574994 0.36661813
-0.11206363 0.15730998 0.3661772
-0.11092183 0.15718307 0.36588177
-0.1098032 0.15708688 0.36565787
-0.10870852 0.15702343 0.36551017
-0.1076211 0.15696931 0.36538419
-0.10655859 0.15695083 0.36534119
-0.10550121 0.15693961 0.36531508
-0.1044532 0.15694223 0.36532119
-0.10340274 0.15694122 0.3653188
-0.10235069 0.15693772 0.36531067
-0.10130943 0.15695088 0.36534128
-0.10027543 0.15697569 0.36539903
-0.099241123 0.15700051 0.36545682
-0.098191932 0.15700206 0.36546046
-0.097161129 0.1570334 0.36553338
-0.096135072 0.15707316 0.36562592
-0.095088616 0.15708008 0.36564207
-0.094050683 0.15710142 0.36569172
-0.093019843 0.15713522 0.3657704
-0.091973178 0.15714274 0.36578792
-0.090920746 0.15714048 0.36578265
-0.089896157 0.15718684 0.36589056
-0.088848643 0.15719375 0.36590666
-0.08780586 0.15720931 0.36594284
-0.086764 0.15722689 0.36598378
-0.085723482 0.15724736 0.36603144
-0.084680378 0.15726356 0.36606914
-0.083636642 0.15727897 0.36610502
-0.082589738 0.15728875 0.36612776
-0.081542596 0.1572983 0.36614999
-0.080496013 0.1573092 0.36617538
-0.079450019 0.15732156 0.36620414
-0.078404017 0.15733424 0.36623365
-0.077364296 0.15736003 0.3662937
-0.076320298 0.15737772 0.36633489
-0.075268865 0.15738034 0.36634099
-0.074221462 0.15739162 0.36636722
-0.073175929 0.15740721 0.36640352
-0.07212881 0.1574198 0.36643285
-0.071079217 0.1574273 0.36645028
-0.070030555 0.15743712 0.36647314
-0.068984248 0.1574526 0.36650917
-0.067938559 0.15747 0.36654967
-0.066889673 0.1574804 0.3665739
-0.065840319 0.15749004 0.36659634
-0.064791702 0.15750179 0.36662367
-0.063742414 0.15751225 0.36664802
-0.062691763 0.15751964 0.36666521
-0.061639607 0.15752344 0.36667407
-0.060590718 0.15753587 0.366703
-0.059540834 0.1575461 0.36672682
-0.058489129 0.1575518 0.36674008
-0.057437345 0.15755749 0.36675334
-0.056385633 0.15756358 0.36676753
-0.055333849 0.15756972 0.3667818
-0.05428258 0.15757757 0.3668001
-0.053231414 0.15758607 0.36681986
-0.052180137 0.15759456 0.36683962
-0.051127974 0.15760067 0.36685383
-0.05007454 0.15760303 0.36685932
-0.049021073 0.15760539 0.36686483
-0.047967348 0.157607 0.36686859
-0.04691254 0.15760504 0.36686403
-0.045856632 0.15759923 0.3668505
-0.044802144 0.15759812 0.36684793
-0.043752477 0.15761434 0.36688566
-0.042704351 0.15763704 0.36693853
-0.041646715 0.15762492 0.36691028
-0.040591165 0.15762024 0.3668994
-0.03953648 0.15761876 0.36689597
-0.038488071 0.15764293 0.36695221
-0.037450898 0.15771575 0.36712173
-0.036413748 0.1577929 0.36730132
-0.035382029 0.1578989 0.36754805
-0.034350131 0.1580106 0.36780807
-0.033322036 0.15814744 0.3681266
-0.032299142 0.15831876 0.36852536
-0.031281199 0.15852675 0.36900952
-0.030256156 0.15871212 0.369441
-0.029241202 0.15896581 0.37003154
-0.02822504 0.15923183 0.37065077
-0.027210997 0.15953115 0.37134749
-0.026202625 0.15988949 0.37218162
-0.025194539 0.16028015 0.37309098
-0.024190024 0.16072927 0.37413642
-0.023182563 0.16119967 0.37523142
-0.022188975 0.16181716 0.37666875
-0.021195918 0.16250204 0.37826297
-0.020210993 0.16332667 0.3801825
-0.01926814 0.16460498 0.38315806
-0.018412808 0.1668312 0.38834015
-0.017574245 0.16950642 0.39456737
-0.016684286 0.17202075 0.40042007
-0.11903008 0.16066392 0.37149936
-0.11733563 0.15981007 0.36952502
-0.11585807 0.15923873 0.36820391
-0.11455768 0.1589026 0.36742669
-0.11329626 0.15861477 0.36676115
-0.11210317 0.15841809 0.36630639
-0.1109565 0.15828392 0.36599612
-0.10982995 0.15817615 0.36574695
-0.10872333 0.15809529 0.36555997
-0.1076355 0.15804042 0.3654331
-0.10655657 0.15799768 0.36533427
-0.10549541 0.1579807 0.36529499
-0.10443873 0.15797013 0.36527058
-0.10338923 0.15797035 0.36527109
-0.10234702 0.15798181 0.36529759
-0.10129867 0.15798394 0.3653025
-0.10026415 0.15800792 0.36535794
-0.099213511 0.1580067 0.36535513
-0.098173745 0.15802298 0.36539277
-0.09714663 0.15806019 0.36547881
-0.096118823 0.15809707 0.36556411
-0.095078059 0.15811324 0.36560148
-0.094041131 0.1581362 0.36565459
-0.093009382 0.15816849 0.36572924
-0.091964394 0.15817875 0.36575297
-0.090912998 0.15817811 0.36575148
-0.0898927 0.15823218 0.3658765
-0.088842876 0.15823495 0.3658829
-0.087797888 0.1582465 0.36590961
-0.086755946 0.15826388 0.36594981
-0.085713357 0.15828049 0.36598822
-0.084667996 0.15829234 0.36601561
-0.083624668 0.15830834 0.3660526
-0.082581289 0.15832464 0.3660903
-0.08153598 0.15833761 0.36612028
-0.080489613 0.15834884 0.36614627
-0.079443134 0.15836017 0.36617243
-0.078397587 0.15837364 0.36620361
-0.077354863 0.15839328 0.36624902
-0.076314889 0.15841918 0.3663089
-0.075265102 0.15842515 0.3663227
-0.074213333 0.15842704 0.36632708
-0.073168151 0.15844326 0.36636457
-0.07212387 0.15846193 0.36640775
-0.071073569 0.15846774 0.36642119
-0.070023328 0.15847385 0.36643532
-0.068978086 0.15849163 0.36647642
-0.067932382 0.1585089 0.36651635
-0.066883937 0.15852021 0.36654249
-0.065836042 0.15853319 0.36657253
-0.06478852 0.15854752 0.36660567
-0.063740045 0.15855993 0.36663437
-0.062688515 0.15856507 0.36664623
-0.061633904 0.15856244 0.36664015
-0.060584351 0.15857296 0.36666447
-0.059534907 0.15858413 0.36669031
-0.058485311 0.15859531 0.36671615
-0.057434667 0.158604 0.36673623
-0.056382939 0.15860994 0.36675
-0.055330992 0.15861551 0.36676288
-0.054279733 0.15862329 0.36678088
-0.053228598 0.15863177 0.36680046
-0.05217725 0.15863992 0.36681932
-0.051125035 0.15864572 0.36683273
-0.050071854 0.15864871 0.36683965
-0.049018446 0.1586511 0.36684516
-0.047964629 0.15865223 0.36684778
-0.04690988 0.15865028 0.36684325
-0.045855161 0.15864831 0.36683872
-0.044807833 0.15867244 0.36689451
-0.043761007 0.15869956 0.36695722
-0.04270583 0.15869696 0.36695123
-0.041646115 0.15867697 0.36690497
-0.04059032 0.15867126 0.36689177
-0.039532792 0.15865828 0.36686176
-0.03847887 0.15865946 0.36686447
-0.037442636 0.15873568 0.36704072
-0.036407825 0.15882255 0.36724159
-0.035374984 0.15892343 0.36747488
-0.03434258 0.15903257 0.36772722
-0.03330547 0.15912613 0.36794356
-0.032285322 0.15930954 0.36836764
-0.031265114 0.15950507 0.36881977
-0.030241232 0.15969492 0.36925879
-0.029221838 0.15992315 0.3697865
-0.02820521 0.16018431 0.37039036
-0.02718791 0.16046198 0.37103242
-0.026181839 0.16083129 0.37188637
-0.025167026 0.16117606 0.37268355
-0.02415962 0.16160101 0.37366617
-0.023160821 0.16212575 0.37487951
-0.022154268 0.16264476 0.37607959
-0.021161487 0.16332328 0.37764853
-0.02016701 0.16406135 0.37935516
-0.019195564 0.16508184 0.38171482
-0.018306499 0.16697745 0.386098
-0.017482048 0.16974506 0.39249745
-0.016583778 0.17212817 0.39800787
-0.11951123 0.16238523 0.37300107
-0.11754914 0.16116466 0.37019742
-0.11597701 0.16046134 0.36858189
-0.11463021 0.16005969 0.3676593
-0.1133446 0.15973681 0.36691764
-0.11214637 0.15953216 0.36644754
-0.11098097 0.15937077 0.36607683
-0.10985435 0.15926252 0.36582819
-0.10873252 0.1591592 0.36559084
-0.10764834 0.15910949 0.36547667
-0.10656763 0.15906399 0.36537218
-0.10549318 0.15902704 0.36528727
-0.10444177 0.1590244 0.36528122
-0.10339107 0.15902282 0.36527759
-0.10234521 0.15902871 0.36529112
-0.10129335 0.15902531 0.36528331
-0.10023303 0.15900841 0.36524451
-0.099185072 0.15901099 0.36525041
-0.098170705 0.15906803 0.36538145
-0.097137183 0.15909496 0.36544329
-0.096104324 0.15912355 0.36550897
-0.095071726 0.15915322 0.36557713
-0.094035752 0.15917784 0.36563367
-0.093000144 0.15920363 0.36569291
-0.091951795 0.15920797 0.36570287
-0.090909354 0.15922274 0.36573681
-0.089887746 0.15927479 0.36585635
-0.088837676 0.15927701 0.36586148
-0.087790526 0.15928461 0.36587891
-0.086748526 0.15930183 0.36591849
-0.085706286 0.15931906 0.36595803
-0.084662758 0.15933426 0.36599296
-0.083616838 0.1593453 0.36601833
-0.082571641 0.15935801 0.36604753
-0.081527285 0.1593727 0.36608127
-0.080480389 0.15938273 0.3661043
-0.079433985 0.15939401 0.36613023
-0.078389354 0.15940922 0.36616516
-0.07734511 0.15942563 0.36620286
-0.076304056 0.15944916 0.36625689
-0.075261332 0.15946981 0.36630434
-0.074209593 0.15947168 0.36630863
-0.073159933 0.15947813 0.36632344
-0.072116554 0.15949866 0.36637059
-0.071069598 0.15951177 0.36640072
-0.070019484 0.15951806 0.36641517
-0.068971999 0.15953065 0.36644408
-0.067926832 0.15954906 0.36648637
-0.066878855 0.15956137 0.36651462
-0.065831065 0.15957451 0.36654481
-0.064783819 0.15958941 0.36657906
-0.063736387 0.15960433 0.36661333
-0.062684789 0.15960917 0.36662444
-0.061630152 0.15960629 0.36661783
-0.060579289 0.15961325 0.36663383
-0.059530523 0.1596261 0.36666331
-0.058481582 0.15963891 0.36669275
-0.057431366 0.15964867 0.36671516
-0.05637994 0.15965535 0.36673051
-0.055328075 0.15966101 0.36674353
-0.054276746 0.15966849 0.3667607
-0.053225555 0.15967667 0.36677948
-0.052174125 0.15968445 0.36679736
-0.051121969 0.15969028 0.36681074
-0.050068922 0.15969351 0.36681816
-0.049015816 0.1596967 0.36682549
-0.047961913 0.15969735 0.36682701
-0.046909269 0.15970235 0.36683846
-0.045857817 0.1597117 0.36685997
-0.044808757 0.15973005 0.36690208
-0.043747213 0.15970367 0.36684152
-0.042705867 0.15975158 0.36695156
-0.041648623 0.15974091 0.36692706
-0.04058956 0.15972255 0.36688489
-0.039533045 0.15971349 0.36686409
-0.038480397 0.15972 0.36687902
-0.037431803 0.15974417 0.36693454
-0.036400411 0.15984528 0.36716679
-0.035368524 0.1599502 0.36740777
-0.034324706 0.16000594 0.36753583
-0.033291444 0.160116 0.36778864
-0.03226757 0.1602799 0.36816511
-0.03124731 0.16047347 0.36860976
-0.03022703 0.16068053 0.36908537
-0.029204367 0.16088951 0.3695654
-0.02818807 0.16115066 0.37016529
-0.027168158 0.16141082 0.37076285
-0.026146689 0.16168259 0.37138712
-0.025142161 0.1620867 0.37231535
-0.024136594 0.16251972 0.37331003
-0.023128089 0.16297235 0.37434971
-0.022124533 0.16350569 0.3755748
-0.021121956 0.16410135 0.37694305
-0.020122182 0.16478436 0.37851191
-0.019139796 0.16569595 0.38060588
-0.018220482 0.16729715 0.38428384
-0.017380077 0.16987623 0.39020804
-0.016482245 0.17221104 0.39557111
-0.11776885 0.16253166 0.37088934
-0.11609044 0.16167846 0.36894238
-0.11473927 0.16126947 0.36800909
-0.11342753 0.16090882 0.36718607
-0.11219152 0.16064984 0.36659509
-0.11101022 0.160465 0.36617333
-0.10987822 0.16034861 0.3659077
-0.10875358 0.1602408 0.36566168
-0.10764489 0.1601546 0.36546499
-0.10656423 0.16010882 0.36536053
-0.10549612 0.16008118 0.36529744
-0.10444397 0.16007745 0.36528894
-0.10339433 0.16007751 0.36528909
-0.10233959 0.16006961 0.36527106
-0.10128608 0.16006351 0.36525711
-0.10024612 0.16007888 0.36529222
-0.099191912 0.1600716 0.36527559
-0.098170631 0.16011788 0.36538118
-0.097137526 0.16014566 0.36544457
-0.096104234 0.16017373 0.36550865
-0.095068112 0.16019765 0.36556321
-0.094032161 0.1602224 0.36561969
-0.092987552 0.16023278 0.36564341
-0.09194155 0.16024099 0.36566213
-0.090912946 0.16028005 0.36575127
-0.089873761 0.16030116 0.36579943
-0.088824533 0.16030464 0.36580735
-0.087783791 0.16032368 0.36585084
-0.086741552 0.16034044 0.36588907
-0.085699089 0.16035719 0.36592731
-0.084656581 0.16037427 0.36596626
-0.083611481 0.1603868 0.36599487
-0.082564272 0.16039556 0.36601487
-0.081518762 0.16040789 0.36604297
-0.08047197 0.16041797 0.36606601
-0.079425044 0.16042808 0.36608905
-0.078380108 0.1604425 0.36612198
-0.07733582 0.16045867 0.36615887
-0.076293968 0.16048042 0.36620849
-0.075250655 0.16049965 0.36625236
-0.074201509 0.16050681 0.36626872
-0.073152557 0.16051461 0.36628652
-0.07210879 0.16053416 0.36633113
-0.071065627 0.16055568 0.36638021
-0.070015937 0.16056287 0.36639664
-0.068966307 0.1605704 0.36641383
-0.067920379 0.16058694 0.36645156
-0.066873766 0.16060236 0.36648676
-0.065826088 0.16061565 0.3665171
-0.064778805 0.16063038 0.36655068
-0.063730478 0.16064295 0.36657938
-0.062679693 0.16064964 0.36659464
-0.061626144 0.16064934 0.36659399
-0.060577907 0.16066314 0.36662546
-0.059528809 0.16067511 0.36665276
-0.058478478 0.16068411 0.36667329
-0.057427939 0.16069286 0.36669326
-0.056376513 0.16069941 0.36670822
-0.055325005 0.16070597 0.36672318
-0.054273576 0.16071302 0.36673927
-0.053222198 0.1607205 0.36675635
-0.052170724 0.16072798 0.36677343
-0.051119369 0.16073616 0.36679208
-0.050066847 0.16074093 0.36680296
-0.049013592 0.1607435 0.36680883
-0.047968954 0.16077507 0.36688086
-0.046917256 0.16078386 0.36690092
-0.045862552 0.16078252 0.36689785
-0.044803414 0.16076519 0.36685833
-0.043748103 0.1607611 0.36684901
-0.042699754 0.16078302 0.36689901
-0.041648421 0.16079454 0.3669253
-0.040593956 0.16079424 0.36692461
-0.039537422 0.16078551 0.36690471
-0.038477447 0.16076194 0.36685091
-0.037422568 0.16075891 0.366844
-0.036386769 0.16084006 0.36702919
-0.035356279 0.16095023 0.36728057
-0.034318928 0.16103497 0.36747396
-0.033287153 0.16115208 0.3677412
-0.032252468 0.16126233 0.36799279
-0.031228516 0.16143554 0.36838806
-0.030212902 0.16166553 0.36891285
-0.029187892 0.16186012 0.36935693
-0.028170742 0.16211465 0.36993772
-0.027151069 0.16237405 0.37052965
-0.026133759 0.16266932 0.37120345
-0.025120771 0.16301776 0.37199861
-0.024107002 0.1633919 0.37285236
-0.023100108 0.16384961 0.37389681
-0.022093141 0.16435142 0.37504193
-0.021086453 0.16490687 0.37630945
-0.020084511 0.16556151 0.3778033
-0.019092135 0.16637433 0.3796581
-0.018132646 0.1675896 0.3824313
-0.017275816 0.16997173 0.38786721
-0.01638726 0.17234877 0.3932915
-0.015458267 0.17462116 0.39847699
-0.11811656 0.16408047 0.37198439
-0.1162858 0.16301252 0.36956325
-0.11483575 0.16246347 0.36831853
-0.11350425 0.16207351 0.36743444
-0.11223946 0.16177237 0.36675173
-0.11105489 0.16158223 0.36632067
-0.10990497 0.16143936 0.36599678
-0.10877538 0.16132388 0.36573496
-0.10765878 0.16122559 0.36551213
-0.10656949 0.16116667 0.36537856
-0.10549993 0.16113672 0.36531064
-0.10444449 0.16112792 0.36529073
-0.10339089 0.16112185 0.36527693
-0.10233454 0.1611113 0.36525303
-0.10128114 0.16110523 0.36523926
-0.10024278 0.16112322 0.36528003
-0.099204198 0.1611412 0.36532083
-0.098169111 0.16116533 0.36537552
-0.097135641 0.16119266 0.36543748
-0.09610115 0.16121887 0.3654969
-0.095063314 0.16123998 0.36554477
-0.094020262 0.16125263 0.36557344
-0.092975572 0.16126271 0.36559629
-0.091942906 0.16129413 0.36566752
-0.09090957 0.16132507 0.36573768
-0.089858592 0.16132507 0.36573768
-0.088814586 0.16133773 0.36576638
-0.087776326 0.16136126 0.36581972
-0.086734362 0.16137849 0.36585876
-0.085691079 0.16139363 0.3658931
-0.084647596 0.16140877 0.36592743
-0.083602898 0.16142194 0.36595729
-0.082556434 0.16143201 0.36598012
-0.081510723 0.16144381 0.36600688
-0.080468766 0.16146347 0.36605144
-0.079423763 0.16147745 0.36608312
-0.078373834 0.16148166 0.36609268
-0.077326812 0.16149205 0.36611623
-0.076283939 0.16151151 0.36616033
-0.075238578 0.16152617 0.36619359
-0.074193113 0.16154103 0.36622727
-0.073146723 0.16155428 0.36625731
-0.072101004 0.1615694 0.36629158
-0.071058318 0.16159187 0.36634254
-0.07001064 0.16160351 0.36636892
-0.06896124 0.16161147 0.36638695
-0.067914411 0.16162577 0.36641937
-0.066867888 0.16164128 0.36645454
-0.065820545 0.16165526 0.36648625
-0.064772487 0.16166791 0.36651492
-0.063724265 0.16168058 0.36654362
-0.062674604 0.16168995 0.36656487
-0.06162462 0.16169879 0.36658493
-0.060574394 0.1617073 0.36660421
-0.059524339 0.16171657 0.36662522
-0.05847507 0.16172834 0.36665192
-0.057424441 0.16173673 0.36667094
-0.056372937 0.16174291 0.36668494
-0.055320889 0.16174774 0.36669591
-0.054269619 0.16175508 0.36671254
-0.053218678 0.1617637 0.36673209
-0.05216727 0.16177124 0.36674917
-0.051116068 0.16177972 0.36676839
-0.050064772 0.16178825 0.36678776
-0.049021073 0.16182226 0.36686483
-0.047974184 0.16184697 0.36692086
-0.046915822 0.16183323 0.36688972
-0.045854852 0.16180965 0.36683625
-0.044795699 0.16179152 0.36679515
-0.04374383 0.16179948 0.36681318
-0.042689346 0.1617979 0.36680961
-0.041638471 0.16181026 0.36683765
-0.040585563 0.16181517 0.36684877
-0.039530355 0.16181092 0.36683914
-0.038464747 0.1617627 0.36672983
-0.037415955 0.16178447 0.36677918
-0.036374643 0.16184081 0.36690688
-0.035341855 0.16193955 0.36713073
-0.034308564 0.16204199 0.36736298
-0.033275731 0.16215317 0.36761504
-0.03224225 0.16226837 0.3678762
-0.031212574 0.1624112 0.3682
-0.030195443 0.1626316 0.36869967
-0.029175693 0.16285342 0.36920255
-0.028153118 0.1630756 0.36970627
-0.027133742 0.16333449 0.3702932
-0.02611235 0.16360186 0.37089935
-0.02509455 0.16391547 0.37161031
-0.024083443 0.1643026 0.37248799
-0.023082374 0.16479741 0.37360975
-0.022063524 0.16520736 0.37453914
-0.021055112 0.16574152 0.37575012
-0.020053389 0.16638893 0.37721786
-0.019049609 0.16709228 0.37881243
-0.018067475 0.16808227 0.38105682
-0.017142007 0.16976117 0.38486302
-0.016293794 0.17248946 0.39104831
-0.015340324 0.17442517 0.3954367
-0.01434916 0.17620768 0.39947781
-0.11889994 0.16624472 0.37445149
-0.11658159 0.16449183 0.37050328
-0.1149262 0.16365066 0.36860862
-0.11360891 0.16327979 0.36777326
-0.11229483 0.16290659 0.36693266
-0.11110322 0.16270567 0.36648011
-0.10992785 0.16252491 0.36607295
-0.10879568 0.16240515 0.36580321
-0.10768832 0.16232044 0.36561242
-0.10659407 0.16225404 0.36546284
-0.10550465 0.16219372 0.36532697
-0.10444529 0.16217887 0.36529356
-0.10338444 0.16216138 0.36525416
-0.10233489 0.16216144 0.36525428
-0.10127928 0.16215181 0.36523259
-0.10024042 0.16216905 0.36527145
-0.09920387 0.16219045 0.36531964
-0.098168723 0.16221464 0.36537409
-0.097133756 0.16223963 0.36543038
-0.096095204 0.16225912 0.36547428
-0.095053822 0.16227421 0.36550829
-0.094012253 0.16228931 0.36554229
-0.092969358 0.16230243 0.36557186
-0.091937833 0.16233595 0.36564735
-0.090897985 0.16235536 0.36569107
-0.089846805 0.16235475 0.36568969
-0.088806085 0.16237326 0.36573139
-0.087767474 0.1623961 0.36578286
-0.086726323 0.16241476 0.36582485
-0.085681528 0.16242695 0.36585233
-0.084636934 0.16243982 0.36588132
-0.083591856 0.16245209 0.36590895
-0.082546532 0.1624642 0.36593622
-0.081503995 0.16248216 0.36597666
-0.080463797 0.16250531 0.36602882
-0.07942304 0.16252795 0.36607981
-0.078372397 0.16253068 0.36608595
-0.077321582 0.16253312 0.36609146
-0.076273911 0.16254233 0.3661122
-0.075229794 0.16255949 0.36615086
-0.074186407 0.16257872 0.36619416
-0.073140897 0.16259378 0.3662281
-0.07209529 0.16260909 0.36626256
-0.071050167 0.16262594 0.36630052
-0.070002742 0.16263795 0.36632758
-0.06895525 0.16265017 0.36635509
-0.06790822 0.16266388 0.36638597
-0.066861004 0.16267757 0.36641681
-0.065813266 0.1626904 0.36644572
-0.064765528 0.16270365 0.36647555
-0.063717619 0.1627169 0.36650538
-0.062669657 0.16273046 0.36653593
-0.061619721 0.16273926 0.36655578
-0.06056945 0.16274749 0.36657429
-0.059519075 0.1627557 0.36659279
-0.058470182 0.16276835 0.36662129
-0.057420284 0.1627786 0.36664438
-0.056368433 0.16278361 0.36665565
-0.055316474 0.16278848 0.36666664
-0.054265376 0.16279612 0.36668387
-0.05321468 0.16280532 0.36670455
-0.05216771 0.16282648 0.36675224
-0.051128149 0.16287215 0.36685508
-0.050088003 0.16291782 0.36695796
-0.049027558 0.16289802 0.36691335
-0.047960162 0.16285375 0.36681363
-0.046909727 0.16286635 0.36684203
-0.045850296 0.16284761 0.3667998
-0.044793993 0.16283934 0.3667812
-0.043739568 0.16283767 0.36677742
-0.042685185 0.16283607 0.36677384
-0.041633446 0.16284475 0.36679336
-0.040579915 0.16284667 0.36679772
-0.039527345 0.16285267 0.36681122
-0.038471781 0.16284631 0.36679688
-0.037417673 0.16284594 0.36679605
-0.036371723 0.16288207 0.36687744
-0.035332397 0.1629509 0.36703247
-0.034296647 0.163041 0.36723539
-0.033262029 0.16314232 0.36746365
-0.032231558 0.16327134 0.36775422
-0.031199429 0.16340041 0.36804494
-0.030177953 0.16359627 0.36848611
-0.029159246 0.16382194 0.36899441
-0.028134689 0.16403055 0.36946428
-0.027114194 0.16428012 0.37002641
-0.026093021 0.16454579 0.37062481
-0.02507806 0.1648749 0.37136611
-0.024063874 0.1652386 0.37218532
-0.023050059 0.16563879 0.37308672
-0.022034315 0.16606349 0.37404332
-0.02102715 0.16659972 0.37525111
-0.020022361 0.16721377 0.37663421
-0.019014075 0.16786712 0.37810582
-0.018013455 0.16867143 0.37991747
-0.017059021 0.17003991 0.38299984
-0.016189486 0.17250176 0.38854495
-0.015240368 0.17441756 0.39286008
-0.014249543 0.17612435 0.39670449
-0.013187592 0.17717242 0.3990652
-0.11685096 0.16593905 0.37135938
-0.11513349 0.16500698 0.36927348
-0.11371961 0.16449673 0.36813161
-0.1123881 0.16409718 0.36723742
-0.11114448 0.16381958 0.36661619
-0.10996944 0.16363873 0.36621144
-0.10881599 0.16348682 0.36587149
-0.10770374 0.16339445 0.36566478
-0.10660338 0.16331847 0.36549473
-0.10551476 0.16325916 0.36536202
-0.10443757 0.16321652 0.36526656
-0.10337177 0.16319096 0.36520937
-0.1023243 0.16319415 0.36521649
-0.10127749 0.16319844 0.36522612
-0.10023512 0.16321006 0.36525214
-0.099202245 0.16323756 0.36531365
-0.098164737 0.16325793 0.36535925
-0.097129487 0.16328254 0.36541432
-0.09609355 0.16330652 0.365468
-0.095052153 0.16332166 0.36550185
-0.094009362 0.1633347 0.36553106
-0.09296339 0.16334245 0.3655484
-0.091924869 0.16336362 0.36559579
-0.090888493 0.16338915 0.36565289
-0.089842804 0.16339831 0.36567342
-0.088802807 0.16341819 0.36571789
-0.087761194 0.16343552 0.36575666
-0.086719215 0.16345258 0.36579487
-0.08567445 0.16346474 0.36582208
-0.084629335 0.16347654 0.36584848
-0.083583012 0.16348626 0.36587024
-0.082537539 0.16349792 0.36589634
-0.081495665 0.1635171 0.36593926
-0.080455333 0.16353993 0.36599034
-0.079412267 0.16355771 0.36603013
-0.078359231 0.16355518 0.36602446
-0.07731016 0.16356096 0.3660374
-0.076270476 0.16358702 0.36609572
-0.075224146 0.16359936 0.36612335
-0.07417915 0.163615 0.36615834
-0.073135063 0.16363312 0.3661989
-0.072089501 0.16364843 0.36623314
-0.071042702 0.16366133 0.36626202
-0.069996558 0.16367616 0.36629522
-0.068949319 0.16368884 0.36632359
-0.067901537 0.1637006 0.36634991
-0.066853814 0.16371287 0.36637738
-0.065805994 0.16372532 0.36640522
-0.064758822 0.16373977 0.36643758
-0.063712023 0.16375569 0.3664732
-0.062663548 0.16376776 0.3665002
