# .PCD v0.7 - Point Cloud Data file format
VERSION 0.7
FIELDS x y z
SIZE 4 4 4
TYPE F F F
COUNT 1 1 1
WIDTH 1374
HEIGHT 1
VIEWPOINT 0 0 0 1 0 0 0
POINTS 1374
DATA ascii
0.15316045 0.031039163 0.35414928
0.15422589 0.031048775 0.35425895
0.15529169 0.031058338 0.35436806
0.15637748 0.031071747 0.35452107
0.15744239 0.031080861 0.35462505
0.15849273 0.031086998 0.35469508
0.15957965 0.031100187 0.35484555
0.1606783 0.03111548 0.35502005
0.16175294 0.031125959 0.35513961
0.16283552 0.031137828 0.35527503
0.16390918 0.031147851 0.35538939
0.16499476 0.031160003 0.35552803
0.16610573 0.031176768 0.35571933
0.16717887 0.031186273 0.35582778
0.16822943 0.031191474 0.35588712
0.16922858 0.031187141 0.35583767
0.17021346 0.031180244 0.35575899
0.17125455 0.031183664 0.35579801
0.17231315 0.031190215 0.35587275
0.17345108 0.031210963 0.35610947
0.1749091 0.031288724 0.35699672
-0.063401371 0.030490737 0.33684769
-0.062417354 0.030482896 0.33676106
-0.061426234 0.030471282 0.33663276
-0.060451008 0.030467307 0.33658886
-0.05948906 0.030470006 0.33661866
-0.058518127 0.030468114 0.33659777
-0.057563126 0.030474598 0.33666939
-0.056630354 0.030493267 0.33687565
-0.055700712 0.030514304 0.33710805
-0.054767277 0.030533969 0.3373253
-0.053831313 0.030552907 0.33753452
-0.052893985 0.030571753 0.33774272
-0.051955473 0.030590607 0.337951
-0.051021859 0.030613115 0.33819968
-0.050087947 0.030636318 0.338456
-0.049149532 0.030657629 0.33869144
-0.048205316 0.030676112 0.33889562
-0.047255397 0.03069165 0.33906728
-0.046305612 0.030707933 0.33924717
-0.045351733 0.030722141 0.33940414
-0.044386838 0.03072935 0.33948377
-0.043417376 0.030733649 0.33953127
-0.042453155 0.030741939 0.33962286
-0.04148424 0.030747142 0.33968034
-0.040516913 0.030753801 0.3397539
-0.039542768 0.030755486 0.33977252
-0.038572956 0.030760711 0.33983025
-0.037602268 0.030765492 0.33988306
-0.036629423 0.030768715 0.33991867
-0.035655133 0.030770868 0.33994246
-0.034681499 0.030773725 0.33997402
-0.033712551 0.030781025 0.34005466
-0.032743618 0.030788776 0.34014028
-0.031778336 0.030800542 0.34027028
-0.030813925 0.030813925 0.34041813
-0.02984217 0.030820603 0.34049189
-0.028869912 0.030827194 0.34056473
-0.027893376 0.030829521 0.34059042
-0.026916761 0.030831927 0.340617
-0.025941851 0.030836539 0.34066796
-0.024966609 0.030841105 0.34071839
-0.023993725 0.030849075 0.34080645
-0.02301872 0.030854879 0.34087056
-0.022039946 0.030855926 0.34088212
-0.021061393 0.03085739 0.34089831
-0.020081896 0.030857548 0.34090006
-0.019102244 0.03085747 0.3408992
-0.018121565 0.030855637 0.34087893
-0.017142063 0.030855712 0.34087977
-0.016165698 0.030861787 0.34094688
-0.015191498 0.030873043 0.34107125
-0.01421106 0.030872302 0.34106305
-0.013231437 0.030873353 0.34107465
-0.01225268 0.030876754 0.34111223
-0.011272381 0.030876521 0.34110966
-0.010294183 0.03088255 0.34117627
-0.0093166307 0.030891987 0.34128052
-0.0083390391 0.030903498 0.34140769
-0.0073601943 0.030912815 0.34151062
-0.006380206 0.030919461 0.34158403
-0.0054000081 0.030927317 0.34167084
-0.0044194413 0.03093609 0.34176776
-0.0034388097 0.030949287 0.34191355
-0.0024572418 0.030961247 0.34204566
-0.0014749307 0.030973544 0.34218153
-0.00049174769 0.030980103 0.34225398
0.00049182167 0.030984765 0.34230548
0.0014755055 0.030985616 0.3423149
0.0024595181 0.030989928 0.34236252
0.0034443543 0.030999189 0.34246483
0.004429365 0.031005556 0.34253517
0.0054137628 0.031006094 0.34254113
0.0063975989 0.031003747 0.3425152
0.0073841563 0.031013457 0.34262246
0.00837084 0.031021347 0.34270963
0.0093568387 0.031025307 0.34275338
0.010343228 0.031029683 0.34280172
0.011329909 0.031034099 0.34285051
0.012317199 0.031039342 0.34290844
0.013304449 0.031043714 0.34295672
0.014292176 0.031048521 0.34300983
0.015284879 0.031062817 0.34316778
0.016277377 0.031074993 0.34330228
0.017265042 0.031077076 0.34332529
0.018253524 0.031080322 0.34336117
0.019246621 0.031090695 0.34347576
0.020240311 0.031100966 0.34358922
0.021228097 0.031101631 0.34359658
0.022216784 0.031103499 0.3436172
0.02321317 0.031115526 0.34375009
0.024210509 0.031127796 0.34388563
0.025208147 0.031139476 0.34401467
0.026206203 0.031150769 0.34413943
0.027202269 0.031158961 0.34422994
0.028197911 0.03116611 0.34430891
0.02919245 0.031171598 0.34436953
0.030187093 0.031176833 0.34442738
0.03118279 0.03118279 0.34449318
0.03217575 0.031185726 0.34452561
0.033164293 0.031184336 0.34451026
0.034151766 0.031182049 0.34448498
0.035141535 0.031181924 0.34448361
0.036137398 0.031187069 0.34454045
0.037133366 0.031192027 0.34459522
0.038124979 0.031193165 0.3446078
0.039116278 0.031193994 0.34461695
0.040111762 0.031198038 0.34466162
0.041112855 0.031206144 0.34475118
0.042117946 0.031216832 0.34486926
0.043120384 0.031225106 0.34496066
0.044120878 0.031231634 0.34503278
0.045121096 0.031237682 0.3450996
0.046125777 0.031246495 0.34519696
0.047131483 0.031255614 0.34529772
0.048137415 0.031264506 0.34539595
0.049145065 0.031274132 0.34550229
0.050155379 0.03128504 0.34562278
0.051165748 0.031295553 0.34573895
0.052175097 0.03130506 0.34584394
0.053184941 0.031314496 0.34594822
0.054180022 0.031315058 0.34595442
0.055175249 0.031315681 0.3459613
0.056171134 0.031316649 0.345972
0.057167083 0.031317618 0.3459827
0.058170155 0.03132239 0.34603542
0.059173279 0.031327032 0.34608668
0.060179178 0.031332958 0.34615219
0.061187711 0.031340048 0.34623048
0.062193513 0.031345531 0.34629107
0.06320215 0.031352248 0.34636527
0.064226285 0.031366326 0.34652078
0.065252952 0.03138119 0.34668502
0.066274524 0.031393196 0.34681764
0.067288034 0.031401083 0.34690478
0.068307109 0.031411301 0.34701765
0.069323003 0.031419776 0.34711131
0.070337296 0.031427301 0.34719443
0.071354844 0.031436052 0.34729108
0.072369874 0.031443462 0.34737298
0.073386125 0.031451195 0.34745839
0.074415989 0.03146448 0.34760514
0.075445294 0.031477176 0.34774542
0.076458789 0.031483028 0.34781009
0.077472195 0.031488698 0.3478727
0.078493275 0.0314973 0.34796774
0.079522692 0.031508993 0.34809691
0.080541432 0.031516213 0.34817669
0.081581108 0.031531349 0.34834388
0.082603857 0.031539652 0.34843564
0.083610319 0.031541616 0.34845734
0.084613256 0.031542219 0.34846398
0.085632198 0.031548705 0.34853563
0.086648047 0.031553913 0.34859318
0.087665148 0.031559452 0.34865439
0.088673197 0.031561647 0.34867862
0.089674443 0.031561397 0.34867585
0.090682842 0.03156364 0.34870064
0.091700681 0.031569086 0.34876081
0.092714787 0.031573143 0.34880564
0.093715981 0.031572763 0.34880143
0.094725445 0.031575151 0.34882778
0.095746957 0.031581458 0.34889746
0.096775822 0.031590033 0.34899223
0.097811162 0.031600527 0.34910816
0.098831043 0.031605866 0.34916714
0.099843204 0.031608652 0.34919792
0.10085592 0.031611558 0.34922999
0.10186695 0.031613879 0.34925565
0.10289912 0.031622656 0.34935263
0.10393798 0.031633299 0.3494702
0.10496061 0.031638846 0.34953147
0.10598257 0.031644084 0.34958935
0.10700624 0.031649735 0.34965175
0.10803165 0.031655785 0.3497186
0.10908788 0.031670675 0.34988311
0.11012914 0.031680986 0.34999701
0.11116698 0.031690132 0.35009807
0.11220365 0.031698789 0.35019371
0.11324092 0.031707458 0.35028946
0.11428214 0.031717069 0.35039565
0.11532598 0.031727236 0.35050794
0.11637578 0.031738851 0.35063627
0.11743344 0.031752389 0.35078585
0.11847541 0.031761494 0.35088643
0.11951502 0.031769816 0.35097837
0.12056661 0.031781156 0.35110366
0.12162786 0.031794835 0.35125476
0.12267832 0.031805489 0.35137248
0.12372744 0.031815629 0.35148448
0.1247713 0.031824257 0.35157982
0.12581703 0.031833224 0.35167888
0.1268547 0.031840026 0.35175401
0.12788345 0.031844497 0.35180339
0.12889178 0.031843852 0.3517963
0.12992063 0.031848248 0.35184485
0.13097771 0.031859443 0.35196853
0.13202779 0.031868778 0.35207164
0.13306402 0.031874653 0.35213655
0.13409996 0.031880368 0.3521997
0.13513799 0.031886492 0.35226735
0.13617557 0.031892423 0.35233286
0.13722114 0.031900119 0.35241789
0.13825119 0.03190412 0.35246208
0.13928179 0.031908192 0.35250708
0.1403148 0.031912755 0.35255748
0.14135413 0.031918675 0.3526229
0.14241385 0.031929087 0.3527379
0.14347854 0.031940453 0.35286349
0.14454931 0.031953003 0.35300216
0.14560831 0.031962801 0.35311037
0.14665475 0.031969722 0.35318685
0.14769672 0.031975579 0.35325155
0.14873455 0.031980466 0.35330555
0.14980486 0.031992223 0.35343543
0.15088597 0.032006115 0.35358888
0.15196669 0.032019738 0.35373938
0.15304697 0.032033086 0.35388687
0.15412416 0.032045614 0.35402527
0.15519065 0.032055773 0.35413748
0.15626039 0.032066461 0.35425559
0.15732922 0.032076828 0.35437012
0.15838186 0.032083787 0.35444698
0.15945515 0.032094806 0.35456872
0.16054259 0.032108519 0.35472021
0.16163436 0.032122917 0.35487926
0.16271761 0.032135453 0.35501775
0.16377741 0.032143228 0.35510367
0.16485304 0.032153998 0.35522264
0.16597418 0.032173455 0.35543761
0.16705486 0.03218488 0.35556382
0.16809174 0.032187782 0.35559586
0.16909063 0.032183412 0.35554761
0.17008664 0.032178551 0.3554939
0.17112181 0.032181114 0.35552222
0.17216587 0.032185309 0.35556856
0.17327419 0.032201398 0.3557463
0.17451733 0.032242205 0.35619712
-0.063382074 0.031449124 0.33674517
-0.06243062 0.03145729 0.33683261
-0.061464459 0.031458188 0.33684224
-0.060486056 0.031452749 0.33678401
-0.059508186 0.031447418 0.3367269
-0.05852994 0.031441703 0.33666572
-0.057576671 0.031449441 0.3367486
-0.05663874 0.031465966 0.33692554
-0.055704854 0.031485353 0.33713311
-0.054773301 0.031506766 0.33736241
-0.053837489 0.031526458 0.33757326
-0.052896909 0.03154403 0.3377614
-0.051959515 0.031564191 0.33797729
-0.05102805 0.031588793 0.33824071
-0.050093193 0.03161221 0.33849144
-0.049151499 0.031632155 0.338705
-0.048207119 0.031651139 0.33890828
-0.047258999 0.031668402 0.33909312
-0.046308868 0.031685013 0.33927101
-0.045344245 0.031692214 0.33934811
-0.044378374 0.031698838 0.33941904
-0.043417025 0.031709064 0.33952853
-0.042454068 0.031718556 0.33963016
-0.041481964 0.031721503 0.33966172
-0.040512126 0.031726364 0.33971375
-0.039544139 0.03173295 0.33978429
-0.038578056 0.03174144 0.33987519
-0.037604682 0.031744212 0.33990487
-0.036629271 0.031745367 0.33991724
-0.035655685 0.031748213 0.3399477
-0.034683395 0.031752404 0.33999258
-0.033715885 0.031761341 0.34008828
-0.032750256 0.031772636 0.34020925
-0.03177638 0.03177638 0.34024933
-0.030810175 0.031788275 0.3403767
-0.029835677 0.031792115 0.3404178
-0.028863326 0.031798579 0.34048703
-0.027892182 0.031806875 0.34057584
-0.026917035 0.03181104 0.34062046
-0.025941687 0.031815276 0.34066582
-0.024969039 0.031823285 0.34075156
-0.023995399 0.031830631 0.34083024
-0.023020888 0.0318374 0.34090269
-0.022041969 0.031838402 0.34091341
-0.021061517 0.031837177 0.3409003
-0.020082558 0.031838201 0.34091127
-0.019103326 0.031838875 0.34091851
-0.018123811 0.031839129 0.34092119
-0.017144736 0.031840224 0.34093294
-0.016168257 0.031846568 0.34100085
-0.015190806 0.03185169 0.34105572
-0.014211255 0.031852812 0.34106773
-0.013231925 0.031854633 0.34108722
-0.012251467 0.031853814 0.34107846
-0.011271256 0.031853549 0.34107563
-0.010294276 0.031863235 0.34117934
-0.009316775 0.031873178 0.34128579
-0.0083385212 0.031882584 0.3413865
-0.0073596491 0.031891812 0.34148532
-0.0063800123 0.031900063 0.34157366
-0.0053998833 0.0319084 0.34166294
-0.0044191298 0.031915937 0.34174365
-0.00343814 0.031925585 0.34184697
-0.0024568422 0.031938948 0.34199005
-0.0014746848 0.031951506 0.34212449
-0.00049168582 0.031959578 0.34221095
0.00049177819 0.031965584 0.34227523
0.0014755661 0.031970598 0.34232894
0.0024598739 0.031978361 0.34241205
0.0034443466 0.031983219 0.34246406
0.0044287681 0.031985547 0.342489
0.0054150615 0.03199809 0.34262332
0.0063998015 0.031999007 0.34263313
0.0073860125 0.032006055 0.34270859
0.0083714882 0.032008633 0.34273618
0.0093581621 0.032014765 0.34280187
0.010346448 0.032024719 0.34290844
0.011333104 0.032028336 0.34294719
0.012319065 0.032029569 0.34296036
0.013305795 0.032032471 0.34299144
0.014291817 0.032033384 0.34300122
0.015283493 0.032046035 0.34313667
0.016274432 0.032055698 0.34324017
0.017261898 0.032057811 0.34326276
0.018251091 0.032062728 0.34331542
0.019244216 0.032073695 0.34343284
0.020237122 0.032083243 0.3435351
0.021224901 0.032084152 0.34354484
0.022214079 0.032087002 0.34357536
0.023210792 0.032100033 0.34371486
0.024206171 0.032110225 0.34382403
0.025203796 0.032122485 0.34395528
0.026200268 0.032132406 0.34406149
0.027195241 0.03213983 0.34414101
0.028189247 0.032145634 0.34420314
0.029182624 0.032150347 0.34425363
0.03017658 0.032155372 0.34430742
0.031171933 0.032161519 0.34437323
0.032163102 0.032163102 0.34439021
0.033150338 0.032160778 0.3443653
0.034140419 0.032161266 0.34437051
0.03513407 0.032164995 0.34441045
0.036127552 0.03216837 0.3444466
0.037118971 0.032169774 0.34446165
0.038109999 0.032170776 0.34447238
0.039100375 0.032171194 0.34447685
0.040097486 0.032176994 0.34453896
0.041106507 0.032191843 0.34469795
0.042110953 0.032202493 0.34481198
0.043112598 0.032210562 0.34489837
0.044113185 0.032217495 0.34497261
0.045115519 0.03222537 0.34505695
0.04611975 0.032234233 0.34515184
0.047122087 0.032241426 0.34522888
0.048128415 0.032251 0.34533137
0.049140267 0.032263812 0.34546855
0.050150026 0.032274768 0.34558588
0.051157232 0.03228369 0.3456814
0.052165926 0.032293193 0.34578314
0.053169325 0.032299124 0.34584665
0.054163963 0.032299612 0.34585187
0.055162925 0.032302614 0.34588403
0.056157418 0.032302938 0.34588751
0.057159007 0.032307263 0.34593382
0.058160905 0.032311615 0.34598041
0.05916496 0.032316994 0.34603801
0.060171593 0.032323584 0.34610856
0.061176248 0.032328911 0.34616563
0.062178865 0.032333009 0.3462095
0.063188255 0.032340445 0.34628913
0.064210221 0.032353986 0.34643412
0.065224797 0.032363448 0.34653544
0.066241629 0.03237373 0.3466455
0.067265533 0.032387108 0.34678876
0.06828662 0.03239876 0.34691355
0.069302045 0.032407433 0.34700638
0.070316806 0.03241555 0.34709331
0.071328469 0.032422032 0.34716272
0.072341494 0.032428946 0.34723675
0.073367283 0.032441314 0.34736919
0.074399926 0.032456346 0.34753013
0.075414933 0.032463383 0.34760547
0.076423995 0.032467708 0.34765181
0.077443555 0.032476328 0.34774411
0.078465797 0.032485839 0.34784594
0.079483099 0.032493088 0.34792358
0.08049906 0.032499619 0.34799349
0.081542805 0.032517072 0.34818035
0.082578532 0.032530937 0.34832883
0.083577707 0.032530248 0.34832144
0.084579237 0.032530475 0.34832388
0.085593723 0.032535627 0.34837905
0.086608157 0.032540638 0.34843269
0.087617636 0.032543693 0.34846541
0.088623263 0.032545265 0.34848225
0.089627005 0.032546118 0.3484914
0.090636097 0.032548875 0.3485209
0.091661617 0.032557406 0.34861225
0.092678979 0.032562882 0.3486709
0.093675278 0.032560926 0.34864995
0.094681531 0.032562431 0.34866607
0.095703281 0.032569177 0.34873831
0.096732169 0.032578193 0.34883481
0.097763099 0.0325877 0.34893662
0.098780319 0.03259249 0.34898794
0.099791467 0.032595202 0.34901696
0.10080135 0.032597452 0.34904104
0.10181329 0.032600317 0.34907171
0.10284472 0.032609299 0.34916791
0.10388079 0.032619569 0.34927788
0.10490166 0.032624919 0.34933516
0.10591878 0.032629009 0.34937894
0.10694063 0.032634467 0.34943739
0.10796977 0.032642022 0.3495183
0.10902463 0.032657146 0.34968024
0.1100695 0.03266903 0.34980747
0.11110648 0.032678377 0.34990755
0.11214364 0.032687608 0.3500064
0.11317509 0.032695025 0.35008582
0.11421175 0.032703806 0.35017985
0.11524822 0.032712378 0.35027161
0.11629795 0.03272453 0.35040176
0.11735613 0.032738835 0.35055491
0.11839728 0.032748181 0.35065502
0.11943176 0.032755546 0.35073385
0.12048829 0.032768782 0.35087559
0.12154964 0.032783099 0.35102889
0.12259895 0.032793958 0.35114515
0.12364785 0.03280453 0.35125837
0.12469692 0.03281498 0.35137025
0.12574315 0.032824516 0.35147238
0.12678686 0.032833252 0.3515659
0.12781537 0.032837939 0.35161608
0.12881884 0.032836176 0.35159722
0.12984648 0.03284055 0.35164404
0.13091716 0.032855656 0.35180581
0.13196498 0.032864843 0.35190415
0.13298991 0.032868229 0.35194042
0.13402383 0.032873772 0.35199976
0.13505657 0.032878939 0.3520551
0.1360988 0.032886326 0.3521342
0.13716789 0.032900047 0.35228112
0.1381976 0.032904193 0.3523255
0.13922806 0.032908451 0.3523711
0.14026333 0.032913782 0.35242817
0.14131019 0.032921728 0.35251328
0.14235802 0.032929789 0.35259959
0.14339741 0.032935798 0.35266393
0.1444646 0.032948066 0.35279527
0.14551812 0.032957066 0.35289165
0.14655782 0.032962833 0.3529534
0.1475928 0.032967463 0.353003
0.14864773 0.032976456 0.35309929
0.14972605 0.032990485 0.35324949
0.15080062 0.033003502 0.35338888
0.15187868 0.033017106 0.35353455
0.15295471 0.033030089 0.35367355
0.15402974 0.033042684 0.35380843
0.1551099 0.033056211 0.35395324
0.15617576 0.03306653 0.35406375
0.15723076 0.033074431 0.35414836
0.15828507 0.033082087 0.35423034
0.15936145 0.033094231 0.35436037
0.16043915 0.033106491 0.35449165
0.16152836 0.033120956 0.35464653
0.16261744 0.033135217 0.35479921
0.163672 0.033142306 0.35487512
0.16474372 0.033152763 0.35498708
0.16585466 0.033170935 0.35518166
0.16692495 0.033180799 0.35528731
0.16795665 0.033182923 0.35531005
0.16897726 0.033182845 0.35530922
0.16998751 0.033180747 0.35528675
0.1710106 0.033181161 0.35529119
0.17204535 0.033183824 0.35531968
0.17312083 0.033194259 0.35543144
0.17421246 0.033207651 0.35557485
-0.06146393 0.032425854 0.33683935
-0.060492318 0.032423884 0.33681887
-0.059516225 0.032419406 0.33677238
-0.058542382 0.032416031 0.3367373
-0.057592962 0.03242629 0.33684388
-0.056648947 0.032439996 0.33698624
-0.055708662 0.03245635 0.33715615
-0.054774527 0.032476932 0.33736995
-0.05383829 0.032496985 0.33757827
-0.052900821 0.03251702 0.33778638
-0.051969104 0.032541402 0.33803967
-0.051036812 0.032566346 0.3382988
-0.050099362 0.032588907 0.33853313
-0.049155917 0.032608379 0.33873543
-0.048206035 0.032624286 0.33890066
-0.047258656 0.032642577 0.33909068
-0.046309702 0.032660525 0.33927712
-0.045344528 0.032667562 0.33935022
-0.044381574 0.032676544 0.3394435
-0.043421019 0.032687735 0.33955976
-0.042455211 0.03269539 0.33963931
-0.041483067 0.032698419 0.33967075
-0.040516898 0.03270641 0.33975378
-0.039551754 0.032715648 0.33984974
-0.038579814 0.03271959 0.33989066
-0.037604306 0.032720629 0.33990148
-0.036631763 0.032724377 0.3399404
-0.035658821 0.03272796 0.33997762
-0.034686405 0.032732241 0.34002209
-0.033722408 0.032744948 0.34015408
-0.032756105 0.032756105 0.34026998
-0.031782228 0.032760143 0.34031194
-0.030808004 0.032764066 0.34035271
-0.029832626 0.032766983 0.34038299
-0.028858425 0.032771431 0.34042922
-0.027889702 0.032782633 0.34054556
-0.026918761 0.032791946 0.3406423
-0.025946882 0.032800775 0.34073403
-0.024974378 0.032809477 0.34082443
-0.024000622 0.032817177 0.34090441
-0.023025792 0.032824002 0.34097531
-0.022044649 0.032822035 0.34095487
-0.021063425 0.032819755 0.34093118
-0.020084115 0.032820381 0.3409377
-0.019104632 0.032820776 0.34094182
-0.018125489 0.03282183 0.34095275
-0.01714691 0.032824084 0.34097618
-0.016169524 0.032829031 0.34102756
-0.015190756 0.032831635 0.34105459
-0.01421196 0.03283453 0.34108466
-0.013234301 0.032840669 0.34114847
-0.012254316 0.032841571 0.34115779
-0.011276855 0.032849967 0.34124506
-0.010299076 0.032858957 0.34133843
-0.0093195904 0.032863822 0.34138894
-0.008340871 0.032872844 0.3414827
-0.0073606754 0.032877684 0.34153295
-0.0063808798 0.032886073 0.34162009
-0.0054007168 0.032895274 0.34171569
-0.0044197678 0.032902718 0.341793
-0.0034390495 0.032916617 0.34193739
-0.0024574415 0.032929715 0.34207347
-0.0014747586 0.032936275 0.3421416
-0.00049168157 0.032942664 0.34220797
0.00049177866 0.032949172 0.34227556
0.0014755918 0.032954883 0.3423349
0.0024597442 0.032960571 0.34239399
0.0034438127 0.032962207 0.34241098
0.004428654 0.032968868 0.34248018
0.0054149348 0.032981876 0.34261531
0.0064014429 0.032992054 0.34272102
0.0073867575 0.032994185 0.34274316
0.0083726076 0.032997925 0.34278202
0.0093609644 0.033009715 0.34290451
0.010348925 0.033018 0.34299055
0.011334994 0.03301933 0.34300438
0.012320769 0.033019662 0.3430078
0.013305602 0.033017602 0.34298643
0.014291677 0.033018701 0.34299785
0.015281407 0.03302756 0.34308985
0.016271586 0.033036251 0.34318015
0.017259303 0.033039238 0.34321117
0.01824834 0.033044294 0.34326369
0.019240592 0.033054352 0.34336817
0.020233257 0.033064101 0.34346947
0.021225646 0.033072516 0.34355688
0.022216564 0.033077996 0.3436138
0.023209678 0.033086136 0.34369835
0.024204275 0.033095639 0.34379709
0.025201151 0.033107396 0.34391919
0.026197175 0.033117183 0.34402087
0.027191011 0.033123594 0.34408748
0.028184436 0.033129074 0.3441444
0.029176246 0.033132348 0.34417841
0.03016942 0.033136904 0.34422573
0.03116296 0.033141561 0.3442741
0.032152601 0.033141911 0.34427774
0.033143524 0.033143524 0.34429452
0.034137283 0.033147793 0.34433886
0.035130955 0.033151746 0.3443799
0.036123015 0.033154 0.34440333
0.037112582 0.033153906 0.34440234
0.038101397 0.033153165 0.34439465
0.039092466 0.033154372 0.34440717
0.040092822 0.033163197 0.34449887
0.041101519 0.033178333 0.34465611
0.042104959 0.033188615 0.34476292
0.043106318 0.033196818 0.34484813
0.044111151 0.033207271 0.3449567
0.045113076 0.033215124 0.34503826
0.04611456 0.033222318 0.34511301
0.047115099 0.033228543 0.34517768
0.048123673 0.033240061 0.34529734
0.04913535 0.033253215 0.34543398
0.050142132 0.033262603 0.34553149
0.051149111 0.033271752 0.34562653
0.052151535 0.033277646 0.34568775
0.053154051 0.033283379 0.34574729
0.054152615 0.033286471 0.34577942
0.055151299 0.033289522 0.34581113
0.056153081 0.033294305 0.34586081
0.057155091 0.033299051 0.34591013
0.058158651 0.033304527 0.34596699
0.059163008 0.033310264 0.3460266
0.060167521 0.033315901 0.34608513
0.061171636 0.033321135 0.34613952
0.062177666 0.033327229 0.34620282
0.063188657 0.033335749 0.34629133
0.064200029 0.033344202 0.34637913
0.065212153 0.033352777 0.34646824
0.066239826 0.033368938 0.34663609
0.067265838 0.033383787 0.34679034
0.068280064 0.033392441 0.34688023
0.069294073 0.03340074 0.34696645
0.070301585 0.033405721 0.34701818
0.071311757 0.033411801 0.34708136
0.072327532 0.033420309 0.34716973
0.073354356 0.03343362 0.34730801
0.074390136 0.0334506 0.34748438
0.075404428 0.033457596 0.34755707
0.076427177 0.033468109 0.34766629
0.077448115 0.033477571 0.34776458
0.078482069 0.033492349 0.34791809
0.079495125 0.033497948 0.34797624
0.080507487 0.033503115 0.34802994
0.081549853 0.03352049 0.34821042
0.082561232 0.033524863 0.34825584
0.083558097 0.033523306 0.34823969
0.084556483 0.033522394 0.34823018
0.08556854 0.033526853 0.34827653
0.086572066 0.033527911 0.34828749
0.087577991 0.033529859 0.34830776
0.088584788 0.033532094 0.34833097
0.089588135 0.033532992 0.34834027
0.090604581 0.03353871 0.3483997
0.091632828 0.033548631 0.34850276
0.092643753 0.033552062 0.3485384
0.093635626 0.033548594 0.34850237
0.094641775 0.033550259 0.34851965
0.095661722 0.03355673 0.34858689
0.096685156 0.033564277 0.34866527
0.097713165 0.03357324 0.3487584
0.098729886 0.033578184 0.34880975
0.099740393 0.033580936 0.34883833
0.1007522 0.033584066 0.34887084
0.10176577 0.033587717 0.34890878
0.10279593 0.033596717 0.34900227
0.10383087 0.033607095 0.34911007
0.10484904 0.033611894 0.34915993
0.10586368 0.033615481 0.34919718
0.10688991 0.033622649 0.34927163
0.10792311 0.033631854 0.34936726
0.10896831 0.033644594 0.34949961
0.1100063 0.033654898 0.34960663
0.11104616 0.033665579 0.34971759
0.11208493 0.033675741 0.34982318
0.11312389 0.033685781 0.34992746
0.11416408 0.033696007 0.35003367
0.11520519 0.033706322 0.35014084
0.11625662 0.033719454 0.35027725
0.11731435 0.033734169 0.3504301
0.11835802 0.033744626 0.35053873
0.11939328 0.033752531 0.35062087
0.12042445 0.033759154 0.35068968
0.12147895 0.033772156 0.35082471
0.12252077 0.033781447 0.35092124
0.12356565 0.033791423 0.35102487
0.12461961 0.033803698 0.35115239
0.12567165 0.033815265 0.35127255
0.12671186 0.033823483 0.35135791
0.12773748 0.033827711 0.35140184
0.12874967 0.033828344 0.35140839
0.12979063 0.033836469 0.35149279
0.13085076 0.033849426 0.35162738
0.13188915 0.033856601 0.35170195
0.13291872 0.033861421 0.35175201
0.13395074 0.033866793 0.3518078
0.13498111 0.033871666 0.35185841
0.13604222 0.033884119 0.35198781
0.13711363 0.033898942 0.35214177
0.13814364 0.033903386 0.35218793
0.13916864 0.033906542 0.35222071
0.14021416 0.033914618 0.35230461
0.14125644 0.033921797 0.3523792
0.14227945 0.033924282 0.35240498
0.14331461 0.033929609 0.35246032
0.14437631 0.033941098 0.35257968
0.14542566 0.033949543 0.35266742
0.14645751 0.033953819 0.35271183
0.14750643 0.033961963 0.35279644
0.1485846 0.033976685 0.35294935
0.14965881 0.033990309 0.35309088
0.15072966 0.034002986 0.35322258
0.15180442 0.034016374 0.35336167
0.15287863 0.034029461 0.35349759
0.15396588 0.03404526 0.35366172
0.15504906 0.034059957 0.35381439
0.15610415 0.034068331 0.35390139
0.15715794 0.034076318 0.35398436
0.1582243 0.034086909 0.35409436
0.15929863 0.034099065 0.35422066
0.16035305 0.034106839 0.35430139
0.161438 0.034120966 0.35444817
0.16251881 0.034134045 0.35458404
0.16358092 0.034143057 0.35467765
0.16467179 0.034157924 0.35483208
0.16576974 0.03417407 0.35499981
0.16682963 0.034182221 0.35508445
0.16786689 0.034185659 0.35512018
0.16889189 0.034186576 0.35512972
0.1698979 0.034183662 0.35509944
0.17091727 0.034183454 0.35509729
0.17196594 0.034189075 0.35515568
0.17304592 0.034200814 0.35527763
0.17415391 0.034217924 0.35545534
-0.061481014 0.033403069 0.33693296
-0.060506683 0.03339969 0.33689886
-0.059529819 0.033394776 0.3368493
-0.058557581 0.03339234 0.33682472
-0.057602447 0.033399738 0.33689934
-0.05665376 0.033411194 0.33701488
-0.055712841 0.033427704 0.33718145
-0.054775495 0.033446983 0.33737591
-0.053842768 0.03346983 0.33760634
-0.052910998 0.033494119 0.33785135
-0.051978365 0.033518758 0.3380999
-0.051044125 0.033543281 0.33834726
-0.050103907 0.033564754 0.33856383
-0.049153488 0.033580106 0.33871871
-0.048205063 0.033597469 0.33889383
-0.047263537 0.033620454 0.33912569
-0.046313513 0.033638235 0.33930504
-0.045349874 0.03364668 0.33939022
-0.044387031 0.033656102 0.33948526
-0.043423105 0.033665102 0.33957607
-0.042456504 0.0336724 0.33964965
-0.041491665 0.033681471 0.33974114
-0.040527165 0.033691257 0.33983988
-0.039554361 0.033694454 0.33987212
-0.038579188 0.033695746 0.33988515
-0.037608527 0.033701148 0.33993962
-0.036639113 0.033707984 0.34000859
-0.035663739 0.03370956 0.3400245
-0.034689486 0.033712316 0.34005231
-0.033724882 0.033724882 0.34017903
-0.032757252 0.033735082 0.34028193
-0.031783663 0.033739578 0.34032729
-0.030810073 0.033744365 0.34037557
-0.029835708 0.033748589 0.34041816
-0.028865831 0.033758342 0.34051657
-0.02789671 0.033769701 0.34063113
-0.026928457 0.033782974 0.340765
-0.025955971 0.033791736 0.34085339
-0.024979938 0.033796385 0.3409003
-0.024005953 0.033804301 0.34098014
-0.023028605 0.033807952 0.34101695
-0.022046812 0.033805113 0.34098831
-0.02106745 0.03380591 0.34099635
-0.020087581 0.033805929 0.34099656
-0.019107772 0.033806056 0.34099784
-0.018128704 0.033807583 0.34101325
-0.017149648 0.033809304 0.3410306
-0.016170789 0.033811647 0.34105423
-0.01519211 0.033814695 0.34108499
-0.014214925 0.033821721 0.34115583
-0.013237265 0.033828564 0.34122488
-0.012259968 0.033837512 0.34131512
-0.011281862 0.033845585 0.34139657
-0.010302313 0.033850454 0.34144568
-0.0093224486 0.033855211 0.34149364
-0.0083422521 0.03385973 0.34153923
-0.0073619559 0.033864997 0.34159237
-0.0063822106 0.03387481 0.34169134
-0.0054018367 0.03388425 0.34178656
-0.0044217105 0.03389978 0.34194323
-0.0034406674 0.033915151 0.34209827
-0.0024580457 0.033921029 0.34215757
-0.0014750529 0.033926215 0.34220988
-0.00049175235 0.033930913 0.34225726
0.00049182394 0.033935852 0.34230709
0.0014754307 0.033934906 0.34229752
0.0024593701 0.033939309 0.34234193
0.003443873 0.033946749 0.34241697
0.0044293283 0.033958182 0.34253231
0.005416024 0.033973239 0.34268421
0.0064027281 0.033983711 0.34278983
0.0073879221 0.033984441 0.34279719
0.0083730826 0.033984866 0.34280145
0.0093597779 0.033990774 0.34286106
0.010347386 0.033998553 0.34293953
0.011334085 0.034002256 0.34297687
0.012320387 0.034004271 0.34299719
0.013305699 0.034003451 0.34298894
0.014293147 0.034007832 0.34303313
0.015282804 0.034016564 0.3431212
0.016271545 0.03402232 0.34317926
0.017259238 0.034025356 0.34320989
0.018247854 0.034029782 0.34325454
0.019239616 0.034039319 0.34335074
0.020229707 0.034045115 0.34340921
0.021221511 0.034053124 0.34348997
0.022214931 0.034062896 0.34358853
0.023207841 0.034071088 0.34367117
0.024202446 0.034080993 0.3437711
0.025197905 0.034091283 0.34387487
0.026192212 0.034099296 0.3439557
0.027185803 0.034105826 0.34402159
0.028178515 0.034110837 0.3440721
0.029169487 0.034113467 0.34409866
0.030161055 0.034116603 0.34413028
0.031153236 0.03412021 0.34416667
0.032146811 0.034125075 0.34421575
0.033140928 0.034130212 0.34426755
0.03413495 0.03413495 0.34431535
0.035128973 0.034139425 0.34436047
0.036119558 0.034140404 0.34437037
0.037108552 0.034139868 0.34436494
0.038100217 0.034141753 0.34438396
0.03909282 0.034144364 0.3444103
0.040092658 0.034153007 0.34449747
0.041097686 0.034165546 0.34462395
0.042100467 0.034175672 0.34472612
0.043101706 0.034184109 0.34481123
0.04410924 0.034197051 0.34494177
0.045115642 0.034208562 0.34505787
0.046115324 0.034214597 0.34511873
0.0471096 0.034216445 0.34513739
0.048118699 0.034228764 0.34526166
0.049129821 0.034241997 0.34539512
0.050136294 0.03425153 0.34549126
0.051143274 0.034261025 0.34558707
0.052145399 0.034266979 0.3456471
0.053146936 0.034272321 0.34570101
0.05414509 0.034275334 0.34573138
0.055141777 0.03427732 0.34575143
0.056143638 0.034282397 0.34580263
0.057144031 0.034286417 0.3458432
0.058148019 0.034292422 0.34590375
0.059158269 0.034301855 0.34599888
0.060162544 0.034307566 0.34605652
0.061162718 0.034310795 0.34608907
0.062169738 0.034317695 0.34615868
0.06318026 0.034326281 0.34624529
0.064189397 0.034333862 0.34632176
0.065207437 0.034345903 0.34644321
0.066237465 0.034363795 0.34662369
0.067251459 0.03437297 0.34671623
0.068265423 0.034381855 0.34680587
0.069277681 0.034389637 0.34688437
0.070284113 0.034394354 0.34693193
0.071297735 0.034402404 0.34701312
0.072313964 0.034411475 0.34710461
0.073346309 0.034427859 0.34726989
0.074382193 0.034445446 0.34744728
0.075406805 0.034457415 0.34756801
0.076432213 0.034469429 0.34768921
0.077467531 0.034485549 0.34785178
0.07850185 0.034500815 0.34800577
0.079512291 0.034505334 0.34805137
0.080526508 0.034511361 0.34811217
0.08153858 0.034516331 0.34816229
0.082547806 0.034519993 0.34819922
0.083542794 0.034517679 0.34817591
0.084541373 0.034516893 0.34816796
0.085542358 0.034517094 0.34816998
0.086543381 0.034517303 0.3481721
0.087551728 0.034520395 0.3482033
0.088558987 0.034522995 0.34822953
0.089572027 0.034527764 0.34827763
0.0905931 0.03453549 0.34835556
0.091617353 0.034544248 0.3484439
0.092625476 0.034546796 0.34846961
0.093625136 0.03454617 0.3484633
0.094636813 0.034549948 0.34850138
0.095657751 0.034556989 0.3485724
0.096681818 0.034565002 0.34865323
0.097694807 0.034568932 0.34869286
0.098702535 0.03457094 0.34871313
0.099716671 0.034575127 0.34875536
0.10072988 0.034578912 0.34879354
0.10173912 0.034581278 0.34881741
0.10276681 0.034589805 0.34890342
0.10378697 0.034595653 0.34896243
0.10479996 0.034599029 0.34899646
0.10582221 0.034605365 0.34906039
0.10685229 0.034614123 0.34914872
0.10788523 0.034623634 0.34924465
0.10892113 0.034633908 0.34934828
0.10996045 0.034645073 0.3494609
0.11100063 0.034656305 0.34957421
0.11204018 0.034667142 0.34968352
0.1130823 0.034678575 0.34979883
0.11412711 0.034690619 0.34992033
0.11516895 0.03470156 0.35003069
0.11621932 0.034714863 0.35016486
0.11727571 0.034729715 0.35031468
0.11831706 0.034739904 0.35041744
0.11935463 0.034748815 0.35050735
0.12038582 0.03475574 0.35057718
0.12141741 0.034762662 0.350647
0.12245736 0.034771845 0.35073963
0.12349892 0.034781329 0.35083529
0.12455112 0.034793634 0.35095942
0.12559909 0.034804564 0.35106969
0.1266302 0.034810692 0.3511315
0.12766872 0.034818746 0.35121271
0.12870316 0.03482556 0.35128146
0.12973189 0.034830742 0.35133374
0.13077736 0.034840301 0.35143015
0.13182701 0.034850821 0.35153624
0.13286285 0.034857556 0.35160419
0.13389346 0.034862828 0.35165736
0.13492291 0.034867715 0.35170668
0.13598385 0.034880616 0.3518368
0.13705693 0.034896415 0.35199615
0.13806885 0.034896523 0.35199726
0.1390738 0.03489488 0.35198069
0.14012843 0.034905639 0.3520892
0.14117873 0.034915172 0.35218534
0.14221032 0.03491997 0.35223377
0.14325045 0.034926787 0.35230252
0.14430743 0.03493759 0.35241148
0.14535248 0.034945372 0.35248998
0.14638621 0.034950342 0.35254011
0.14744443 0.034961049 0.35264811
0.14851207 0.034973834 0.35277706
0.14958116 0.034986779 0.35290766
0.15065354 0.035000317 0.35304421
0.1517393 0.035016764 0.35321009
0.15281437 0.035030536 0.35334903
0.15390581 0.035047859 0.35352376
0.15497604 0.035060152 0.35364777
0.15602952 0.035068523 0.3537322
0.15709262 0.035078935 0.35383722
0.15815969 0.035090093 0.35394976
0.15921809 0.035099193 0.35404158
0.16027233 0.035107274 0.35412306
0.16135001 0.035120349 0.35425496
0.16242935 0.035133623 0.35438883
0.16351312 0.035147682 0.35453066
0.16459419 0.035160985 0.35466486
0.16567466 0.035174005 0.35479617
0.16674085 0.035183847 0.35489547
0.16778313 0.035188559 0.35494298
0.16880524 0.035189006 0.35494751
0.16980663 0.035185158 0.35490867
0.17083937 0.035187811 0.35493544
0.17191118 0.035198431 0.35504258
0.17301244 0.035214923 0.3552089
0.17414053 0.035236645 0.35542804
-0.062478539 0.034387413 0.33709115
-0.061529573 0.034398425 0.33719909
-0.06056083 0.034398552 0.33720034
-0.059560239 0.034380302 0.33702144
-0.058574885 0.034370385 0.33692425
-0.057619806 0.034378204 0.33700088
-0.056667589 0.034388024 0.33709714
-0.055725358 0.034404352 0.33725721
-0.054792341 0.034427047 0.33747968
-0.053861115 0.034451704 0.33772138
-0.052928802 0.03447656 0.33796504
-0.051995277 0.034501538 0.3382099
-0.051059153 0.034525715 0.33844689
-0.050114311 0.034544814 0.33863413
-0.049165543 0.034561917 0.33880177
-0.048222955 0.034584139 0.33901963
-0.047278717 0.034606073 0.33923462
-0.04632109 0.034618922 0.33936056
-0.045357287 0.034627605 0.33944571
-0.044393733 0.03463687 0.33953652
-0.043429367 0.0346459 0.33962503
-0.042476438 0.034664679 0.33980912
-0.041511517 0.034674324 0.33990368
-0.040536869 0.03467612 0.33992127
-0.039560817 0.034676768 0.33992761
-0.038587663 0.034680054 0.33995983
-0.037619162 0.034687798 0.34003577
-0.036646329 0.034691859 0.34007555
-0.035668299 0.034691084 0.34006798
-0.034694772 0.034694772 0.34010413
-0.033728808 0.034706455 0.34021863
-0.032759339 0.03471512 0.34030357
-0.031786218 0.034720328 0.34035465
-0.030813966 0.034726851 0.34041858
-0.0298441 0.034736577 0.34051391
-0.02887463 0.034747437 0.34062037
-0.027907602 0.034762103 0.34076414
-0.026938181 0.034774743 0.34088805
-0.025961649 0.034778815 0.34092796
-0.024985475 0.034783702 0.34097588
-0.024008969 0.034788504 0.34102297
-0.02303105 0.034791585 0.34105316
-0.022052197 0.034793466 0.34107161
-0.021073185 0.034795258 0.34108916
-0.020092916 0.03479505 0.3410871
-0.019112846 0.034795184 0.34108841
-0.018133577 0.034796864 0.34110489
-0.017154312 0.034798745 0.34112334
-0.016175155 0.034801088 0.34114632
-0.0151963 0.03480443 0.34117907
-0.014218307 0.034810338 0.34123698
-0.013239752 0.034815643 0.34128898
-0.012261914 0.034823835 0.3413693
-0.011282904 0.034829833 0.3414281
-0.01030316 0.034834493 0.34147379
-0.0093229441 0.034838371 0.34151179
-0.0083429674 0.03484416 0.34156853
-0.0073637604 0.034855131 0.34167609
-0.0063838623 0.034865707 0.34177977
-0.0054043373 0.034882542 0.34194478
-0.0044237445 0.03489843 0.34210053
-0.0034413668 0.034905292 0.34216779
-0.0024585065 0.034910791 0.34222171
-0.0014753023 0.034915484 0.34226772
-0.00049183663 0.034920402 0.34231591
0.00049185619 0.034921791 0.34232953
0.001475532 0.034920923 0.34232101
0.002459595 0.034926247 0.34237322
0.0034445168 0.03493724 0.34248099
0.004429868 0.034946736 0.34257406
0.0054166191 0.034961816 0.34272188
0.0064034243 0.034972548 0.34282708
0.0073885745 0.034972586 0.34282747
0.0083740763 0.034974083 0.34284213
0.0093599455 0.034976639 0.3428672
0.010346372 0.034980588 0.34290591
0.011333501 0.034986023 0.3429592
0.012320552 0.03499037 0.34300178
0.013307063 0.034992646 0.3430241
0.014294578 0.034997068 0.34306747
0.015283618 0.035004415 0.34313947
0.016272163 0.035009805 0.34319231
0.017259115 0.035011351 0.34320745
0.018247798 0.035016045 0.34325349
0.019237602 0.0350223 0.3433148
0.020227566 0.035028227 0.34337288
0.021217614 0.035033733 0.34342688
0.022211438 0.035044711 0.3435345
0.023207344 0.035057902 0.34366381
0.024199203 0.035064153 0.34372506
0.025191719 0.035070825 0.34379047
0.02618682 0.035080455 0.34388489
0.027181152 0.035088398 0.34396273
0.028173588 0.035093416 0.34401193
0.02916456 0.035096336 0.34404054
0.030159583 0.035103779 0.3441135
0.031153681 0.035109702 0.34417158
0.032152858 0.035120815 0.34428051
0.033150136 0.035129249 0.34436318
0.034143813 0.035133488 0.34440476
0.035138249 0.035138249 0.34445143
0.036127601 0.035137802 0.34444705
0.037113253 0.03513388 0.34440857
0.038102865 0.035133813 0.34440792
0.03909871 0.035139348 0.34446219
0.040101308 0.035150528 0.3445718
0.041100524 0.03515828 0.34464777
0.042099152 0.035165176 0.34471536
0.043100167 0.035173699 0.34479892
0.04410987 0.035188772 0.34494668
0.045119211 0.035202902 0.34508517
0.04611396 0.035205282 0.34510851
0.047109436 0.035208106 0.3451362
0.048118707 0.03522091 0.34526172
0.049124599 0.035230774 0.3453584
0.050131232 0.035240766 0.34545636
0.05113769 0.03525025 0.34554935
0.052138902 0.035255831 0.34560403
0.053140048 0.035261154 0.34565622
0.054135144 0.035262343 0.34566787
0.055131659 0.035264395 0.34568799
0.056130987 0.035268143 0.34572473
0.05713151 0.035272498 0.34576741
0.058143139 0.035283443 0.34587473
0.059153017 0.035292976 0.34596816
0.060149956 0.035294604 0.3459841
0.061149832 0.035297871 0.34601614
0.06216104 0.035307471 0.34611025
0.063171782 0.035316508 0.34619883
0.06418217 0.035325069 0.34628278
0.065201059 0.035337981 0.34640932
0.066213004 0.035346791 0.34649572
0.067225151 0.035355452 0.34658059
0.068245895 0.035368312 0.34670666
0.069258101 0.035376441 0.34678635
0.070268735 0.035383545 0.346856
0.071282864 0.035392188 0.34694073
0.07231386 0.035408854 0.3471041
0.073348418 0.035426788 0.34727988
0.07436619 0.035436239 0.34737253
0.07538981 0.03544819 0.34748968
0.076425582 0.035465468 0.34765905
0.077460304 0.035481818 0.34781933
0.078484818 0.035493135 0.34793028
0.079497777 0.035499007 0.34798783
0.0805225 0.035509922 0.34809482
0.081533343 0.035514522 0.34813994
0.082532756 0.035514094 0.34813574
0.083527505 0.035511695 0.3481122
0.084523566 0.035509899 0.34809461
0.085521936 0.035509109 0.34808686
0.086529106 0.035511944 0.34811467
0.087536827 0.03551494 0.34814402
0.088544525 0.03551786 0.34817263
0.089560926 0.035524167 0.34823447
0.090578668 0.035530858 0.34830007
0.091601156 0.035539247 0.34838229
0.092617042 0.035544921 0.34843791
0.093620069 0.035545588 0.34844446
0.094632432 0.035549752 0.34848526
0.095654137 0.035557296 0.34855923
0.096664809 0.03556063 0.34859189
0.097670212 0.035561975 0.3486051
0.098683544 0.035566151 0.34864601
0.099701315 0.035571825 0.34870166
0.10071152 0.035574716 0.34872997
0.1017186 0.035576455 0.34874704
0.10273327 0.035580792 0.34878954
0.10374205 0.035583023 0.34881142
0.10476322 0.035589419 0.34887412
0.10579359 0.035598788 0.34896597
0.10682574 0.035608578 0.34906194
0.10786057 0.035619069 0.34916478
0.10889963 0.035630755 0.34927931
0.10994127 0.03564306 0.34939995
0.11097811 0.035653602 0.34950328
0.11201566 0.035664178 0.34960696
0.11306585 0.035678558 0.34974793
0.11411402 0.035692051 0.34988019
0.11515707 0.035703719 0.34999457
0.11620823 0.035717677 0.35013142
0.11725635 0.035730474 0.35025686
0.11829559 0.035740368 0.35035384
0.11933175 0.035749175 0.35044017
0.12036192 0.035756052 0.35050759
0.12138975 0.035762124 0.3505671
0.1224271 0.035770878 0.35065293
0.12347268 0.035781879 0.35076076
0.12452269 0.035793971 0.35087931
0.12556855 0.035804685 0.35098433
0.126597 0.035810307 0.35103944
0.12763061 0.035817284 0.35110784
0.12866579 0.035824593 0.35117948
0.12969632 0.035830505 0.35123742
0.1307357 0.035838742 0.35131818
0.13177331 0.035846379 0.35139301
0.13281357 0.035854612 0.35147375
0.13383989 0.035858992 0.35151666
0.13487251 0.035864975 0.35157531
0.13593811 0.035879575 0.35171846
0.13700548 0.035894424 0.35186401
0.13800652 0.035891805 0.35183835
0.13901538 0.035891246 0.35183284
0.14007463 0.035903607 0.35195401
0.14112903 0.035914555 0.35206136
0.14216346 0.035920303 0.35211769
0.14320445 0.035927616 0.35218939
0.14425485 0.035937171 0.35228306
0.14529945 0.035945158 0.35236135
0.14633505 0.035950825 0.3524169
0.14737952 0.035958577 0.35249287
0.14843526 0.035968956 0.35259461
0.14950235 0.03598192 0.35272172
0.15057486 0.035996012 0.35285985
0.15166803 0.036014818 0.35304418
0.15275539 0.036032002 0.35321265
0.15383255 0.036046572 0.35335547
0.15489922 0.036058508 0.35347247
0.15595856 0.036068592 0.35357133
0.15702195 0.036079478 0.35367805
0.15808949 0.036091167 0.35379264
0.15914777 0.036100615 0.35388523
0.16022104 0.036113314 0.35400972
0.16129835 0.036126759 0.35414153
0.16237737 0.03614042 0.35427544
0.16345555 0.036153719 0.35440582
0.16452201 0.03616428 0.35450935
0.1656038 0.03617806 0.35464442
0.16667321 0.036188986 0.35475153
0.16772063 0.036195029 0.35481077
0.16874726 0.036196541 0.35482559
0.16974692 0.036192283 0.35478386
0.17078517 0.036196262 0.35482284
0.17183934 0.036203541 0.35489419
0.17293708 0.036219861 0.35505417
0.17410675 0.036250964 0.35535908
-0.063413851 0.035337489 0.33691397
-0.062510364 0.035374083 0.33726287
-0.06156807 0.03538952 0.33741006
-0.060602836 0.035392057 0.33743423
-0.059610754 0.035378739 0.33730727
-0.058600526 0.035354037 0.33707175
-0.05763445 0.035355587 0.33708653
-0.056680482 0.035364747 0.33717385
-0.055743117 0.035384759 0.33736467
-0.054811694 0.035409324 0.33759886
-0.053880457 0.035434894 0.33784267
-0.052947603 0.035460323 0.33808509
-0.052011829 0.035484705 0.33831757
-0.051072814 0.035507765 0.33853742
-0.050130412 0.035529323 0.33874294
-0.049187172 0.035551123 0.33895081
-0.048240919 0.035571586 0.3391459
-0.047287598 0.035587575 0.33929834
-0.046329562 0.03560061 0.33942261
-0.045366514 0.035610273 0.33951476
-0.044404671 0.03562133 0.33962017
-0.043458268 0.035645545 0.33985105
-0.042503804 0.035664111 0.34002805
-0.041527998 0.035665222 0.34003863
-0.040551946 0.035666171 0.34004769
-0.039576586 0.035667788 0.3400631
-0.038603634 0.035671711 0.34010053
-0.037631884 0.035676982 0.34015077
-0.036657214 0.035679691 0.34017658
-0.035681654 0.035681654 0.3401953
-0.034710139 0.03568789 0.34025475
-0.033739407 0.035695314 0.34032556
-0.032765266 0.035699472 0.34036517
-0.031793196 0.035706203 0.34042937
-0.03082273 0.035715226 0.3405154
-0.029852942 0.035725653 0.3406148
-0.028884187 0.035738062 0.34073311
-0.027917368 0.035753824 0.34088337
-0.026948098 0.035767477 0.34101355
-0.025970832 0.035771146 0.34104854
-0.024992989 0.035774279 0.3410784
-0.024015984 0.035778914 0.3411226
-0.023039034 0.035784028 0.34117138
-0.022059966 0.035786167 0.34119177
-0.021080347 0.035787564 0.34120509
-0.020099556 0.035787016 0.34119985
-0.019118048 0.035785064 0.34118125
-0.018138535 0.035786841 0.34119818
-0.017158451 0.035787623 0.34120566
-0.016179096 0.035790119 0.34122944
-0.015199663 0.035792753 0.34125456
-0.014220794 0.035797171 0.34129667
-0.013242652 0.035804208 0.34136376
-0.012263689 0.035809971 0.34141871
-0.011284012 0.035814472 0.34146163
-0.010303705 0.035817642 0.34149185
-0.0093238363 0.035823159 0.34154445
-0.0083450703 0.035834711 0.3416546
-0.0073658745 0.035847258 0.3417742
-0.0063868719 0.035864744 0.34194091
-0.0054066624 0.035880577 0.34209189
-0.0044245617 0.035888113 0.34216371
-0.0034419852 0.03589499 0.34222928
-0.0024588821 0.035899676 0.34227398
-0.0014755266 0.035904482 0.34231979
-0.00049186614 0.035906229 0.34233645
0.00049187755 0.03590706 0.34234437
0.0014758268 0.035911787 0.34238943
0.0024602266 0.035919309 0.34246117
0.0034455033 0.035931677 0.34257907
0.0044311294 0.035941381 0.3426716
0.0054165651 0.035946295 0.34271845
0.0064031947 0.035956401 0.3428148
0.0073887333 0.035958502 0.34283483
0.0083745969 0.035961501 0.34286344
0.0093612028 0.035966728 0.34291324
0.010348507 0.035973381 0.34297669
0.01133548 0.035977829 0.3430191
0.01232213 0.035980616 0.34304568
0.013308481 0.035982192 0.34306067
0.014295665 0.035985637 0.34309354
0.015284524 0.035992589 0.34315982
0.016272301 0.035996303 0.34319523
0.017259762 0.035998933 0.34322029
0.018249441 0.036005657 0.3432844
0.019238882 0.036011241 0.34333766
0.020227784 0.036015324 0.34337658
0.021217708 0.036020759 0.3434284
0.022211853 0.036032561 0.34354094
0.023207916 0.036046337 0.34367228
0.024198705 0.036051132 0.34371799
0.025189409 0.036055427 0.34375894
0.026183549 0.036064133 0.34384194
0.027178651 0.036073484 0.34393108
0.028170452 0.036077946 0.34397364
0.029161308 0.036080942 0.34400219
0.030156873 0.036089372 0.34408256
0.031154586 0.036099758 0.3441816
0.032155111 0.036112666 0.34430465
0.033157617 0.036126953 0.34444088
0.034154642 0.036134623 0.34451398
0.035149891 0.036140028 0.34456554
0.036135294 0.036135294 0.34452039
0.037117358 0.036127564 0.34444669
0.038111541 0.036131721 0.34448633
0.039112132 0.036141593 0.34458044
0.04010934 0.036147926 0.34464082
0.041101038 0.036149107 0.34465209
0.042100381 0.0361568 0.34472543
0.043101814 0.036165889 0.3448121
0.044113915 0.036183324 0.34497833
0.045126162 0.036200106 0.34513834
0.046122834 0.036203947 0.34517494
0.047124252 0.036211267 0.34524474
0.048127759 0.036219861 0.34532666
0.049120568 0.036220215 0.34533006
0.050128195 0.036231268 0.34543544
0.051134404 0.036240887 0.34552714
0.052137814 0.036248196 0.34559682
0.053145394 0.036258072 0.345691
0.054140676 0.036259353 0.34570318
0.055137511 0.036261607 0.34572467
0.056135044 0.03626423 0.34574971
0.057132192 0.036266521 0.34577155
0.058141343 0.036276221 0.34586403
0.059151206 0.036286034 0.34595758
0.060153037 0.036290675 0.34600183
0.061153971 0.036294632 0.34603956
0.062164556 0.036304101 0.34612983
0.063165866 0.036307938 0.3461664
0.064176835 0.036317125 0.34625399
0.065193728 0.036329329 0.34637037
0.066202648 0.036336791 0.34644151
0.067217618 0.036347307 0.34654176
0.068237782 0.036360279 0.34666544
0.069250003 0.036368705 0.34674579
0.070259802 0.036375642 0.34681192
0.071284652 0.03639007 0.34694946
0.072317034 0.036407884 0.34711933
0.073335089 0.036418103 0.34721676
0.074351475 0.03642723 0.34730378
0.075384788 0.036444303 0.34746653
0.076419592 0.036461633 0.34763178
0.077443697 0.036473483 0.34774476
0.078468777 0.036485482 0.34785914
0.079495773 0.036498059 0.34797907
0.080518082 0.036508199 0.34807575
0.08151871 0.036508378 0.34807745
0.082517773 0.036507864 0.34807253
0.083512992 0.036505681 0.34805173
0.08450903 0.036503904 0.34803477
0.085517429 0.036507439 0.34806851
0.086526021 0.036510978 0.34810224
0.087527744 0.036511574 0.3481079
0.088534623 0.036514279 0.34813371
0.089547925 0.036519542 0.3481839
0.090564981 0.036526207 0.34824744
0.091597892 0.036539048 0.34836987
0.092615075 0.036545407 0.34843048
0.093612932 0.036544085 0.34841788
0.0946244 0.036548048 0.34845567
0.095641851 0.036554214 0.34851447
0.09665031 0.036556855 0.34853962
0.097657241 0.036558863 0.34855878
0.098671906 0.036563702 0.34860492
0.099679135 0.036565714 0.34862408
0.10068528 0.036567289 0.34863913
0.10168775 0.036567517 0.34864128
0.10269421 0.036569156 0.34865692
0.10372714 0.036580104 0.34876129
0.10475721 0.036589842 0.34885412
0.10577667 0.036595721 0.34891018
0.10681 0.036606241 0.3490105
