# .PCD v0.7 - Point Cloud Data file format
VERSION 0.7
FIELDS x y z
SIZE 4 4 4
TYPE F F F
COUNT 1 1 1
WIDTH 1283
HEIGHT 1
VIEWPOINT 0 0 0 1 0 0 0
POINTS 1283
DATA ascii
-0.032185029 -0.0097065959 0.35556546
-0.031218076 -0.0097236633 0.35619065
-0.030254588 -0.0097430032 0.35689908
-0.029297812 -0.0097659379 0.35773921
-0.028349763 -0.0097935544 0.35875085
-0.027393976 -0.0098204818 0.35973725
-0.026435114 -0.0098483758 0.36075905
-0.025471544 -0.0098767215 0.36179736
-0.024517488 -0.0099113248 0.36306494
-0.02356904 -0.0099513726 0.36453193
-0.022616934 -0.0099935289 0.3660762
-0.02167427 -0.010044173 0.36793137
-0.020746227 -0.010107136 0.37023777
-0.019802196 -0.010168695 0.37249276
-0.01885524 -0.010235702 0.37494731
-0.017937472 -0.010327635 0.37831494
-0.085195914 -0.009108997 0.37293044
-0.083179846 -0.0090067349 0.36874375
-0.081514552 -0.0089403056 0.36602408
-0.08000394 -0.0088893259 0.36393693
-0.078558631 -0.0088443495 0.36209553
-0.077193677 -0.0088073323 0.36058003
-0.075889193 -0.0087763015 0.35930958
-0.07462965 -0.0087496825 0.3582198
-0.073413104 -0.0087274322 0.35730883
-0.0721986 -0.0087047955 0.35638207
-0.070989862 -0.0086822137 0.35545754
-0.069811493 -0.0086627398 0.35466027
-0.068653472 -0.0086452514 0.3539443
-0.067509606 -0.0086290482 0.3532809
-0.06637761 -0.0086138882 0.35266027
-0.065264434 -0.0086007388 0.35212192
-0.064164296 -0.0085889222 0.35163811
-0.063069232 -0.0085774157 0.35116702
-0.061987292 -0.0085673491 0.35075492
-0.060911663 -0.0085578365 0.35036546
-0.059843458 -0.0085490653 0.35000634
-0.058793396 -0.0085426299 0.34974289
-0.057758693 -0.0085382415 0.34956321
-0.056728777 -0.0085344175 0.34940666
-0.055702753 -0.0085310526 0.34926888
-0.054678138 -0.0085277837 0.34913504
-0.053667508 -0.0085266139 0.34908715
-0.052660592 -0.0085260002 0.34906206
-0.051664721 -0.0085271867 0.34911063
-0.050673615 -0.0085292226 0.34919396
-0.049687762 -0.0085322419 0.34931758
-0.048698373 -0.0085347667 0.34942093
-0.047705866 -0.0085368399 0.34950581
-0.046717267 -0.0085397158 0.34962356
-0.045731932 -0.0085433275 0.34977144
-0.044747751 -0.0085473228 0.34993502
-0.043766249 -0.008552026 0.35012755
-0.042789973 -0.0085579948 0.35037193
-0.04182234 -0.0085660219 0.35070056
-0.040851951 -0.0085738655 0.35102171
-0.039880924 -0.0085819708 0.35135353
-0.038914423 -0.0085914955 0.35174349
-0.03794748 -0.0086014289 0.35215014
-0.03698482 -0.0086129028 0.35261992
-0.036021926 -0.0086249681 0.35311389
-0.035057422 -0.0086373352 0.3536202
-0.034088336 -0.0086492794 0.3541092
-0.03311554 -0.008660987 0.35458854
-0.032142282 -0.008673314 0.35509318
-0.031173574 -0.0086877169 0.35568288
-0.030210828 -0.0087048151 0.35638288
-0.029256139 -0.0087255156 0.35723037
-0.028302878 -0.0087481625 0.35815755
-0.027353933 -0.0087739034 0.35921142
-0.026397692 -0.0087992307 0.36024833
-0.025436334 -0.0088248504 0.36129725
-0.024479983 -0.0088544618 0.36250955
-0.023528557 -0.0088885659 0.36390582
-0.022570034 -0.008923037 0.36531708
-0.02161747 -0.0089633409 0.36696717
-0.020693365 -0.0090201851 0.3692944
-0.019747755 -0.0090732928 0.37146869
-0.018800054 -0.0091314539 0.37384987
-0.017875653 -0.009208669 0.37701112
-0.017009156 -0.0093276016 0.38188031
-0.084726743 -0.007993089 0.37087673
-0.082927264 -0.0079229875 0.36762404
-0.08132647 -0.0078703035 0.36517954
-0.079834141 -0.0078268768 0.36316454
-0.078422874 -0.0077903518 0.36146981
-0.077084638 -0.0077601988 0.36007071
-0.075779803 -0.0077326326 0.35879165
-0.074526481 -0.0077096359 0.35772461
-0.073317982 -0.0076906979 0.35684589
-0.072106548 -0.0076709092 0.35592771
-0.070899285 -0.0076510021 0.35500401
-0.06972906 -0.007634569 0.35424152
-0.068576254 -0.0076195835 0.3535462
-0.067436449 -0.0076056141 0.35289803
-0.066308312 -0.0075925551 0.35229209
-0.065191843 -0.0075804465 0.35173026
-0.064087167 -0.0075693503 0.35121539
-0.06300094 -0.0075601125 0.35078678
-0.061925314 -0.0075518675 0.3504042
-0.060851675 -0.007543596 0.35002041
-0.059786938 -0.0075361687 0.34967577
-0.058742605 -0.0075311032 0.34944075
-0.057709988 -0.0075273896 0.34926844
-0.056678113 -0.0075236429 0.3490946
-0.055651579 -0.0075204838 0.348948
-0.054630142 -0.0075179092 0.34882855
-0.053620785 -0.0075169322 0.34878322
-0.05261872 -0.0075169601 0.34878451
-0.051623333 -0.0075179613 0.34883097
-0.050636105 -0.0075202137 0.34893548
-0.049657699 -0.0075238934 0.34910622
-0.048666663 -0.0075257728 0.34919342
-0.047673631 -0.0075274152 0.34926963
-0.046683811 -0.0075296466 0.34937316
-0.045698166 -0.0075326646 0.3495132
-0.044716567 -0.0075364998 0.34969115
-0.043740582 -0.0075414795 0.34992221
-0.042760503 -0.0075459713 0.35013062
-0.041792341 -0.0075528328 0.350449
-0.040827461 -0.0075606406 0.35081127
-0.039853539 -0.0075671277 0.35111228
-0.038888354 -0.0075756535 0.35150787
-0.037921578 -0.0075843157 0.35190979
-0.036955625 -0.007593621 0.35234156
-0.035987683 -0.0076030316 0.3527782
-0.035022177 -0.0076135164 0.35326469
-0.034052867 -0.0076237763 0.35374075
-0.033082113 -0.0076343338 0.35423061
-0.032108825 -0.0076449588 0.3547236
-0.03113497 -0.0076561403 0.35524243
-0.030170985 -0.0076705893 0.35591286
-0.029217817 -0.0076888995 0.35676244
-0.028266944 -0.0077091665 0.35770282
-0.027312981 -0.0077300891 0.35867363
-0.026362017 -0.0077535342 0.35976148
-0.025405519 -0.0077771996 0.36085954
-0.024451137 -0.0078035542 0.36208239
-0.02349682 -0.0078322729 0.36341494
-0.022538617 -0.0078623081 0.36480856
-0.021578111 -0.0078944312 0.36629903
-0.020640895 -0.007938806 0.36835802
-0.019702213 -0.0079873838 0.370612
-0.018748932 -0.0080352565 0.37283328
-0.017818844 -0.0080994749 0.37581301
-0.016899854 -0.0081773484 0.37942633
-0.084441006 -0.0069039818 0.36962599
-0.082743108 -0.0068513402 0.36680764
-0.081160173 -0.0068069822 0.36443281
-0.07968919 -0.0067709768 0.36250514
-0.078313954 -0.0067422609 0.36096776
-0.076982908 -0.0067166295 0.35959551
-0.075683586 -0.0066931066 0.35833612
-0.074440859 -0.006674008 0.35731363
-0.073231407 -0.0066574011 0.35642451
-0.072028458 -0.0066409218 0.35554224
-0.070823841 -0.006623812 0.35462624
-0.069659412 -0.0066100173 0.35388768
-0.068509437 -0.0065972051 0.35320175
-0.067373134 -0.0065853437 0.35256672
-0.066248834 -0.0065743118 0.35197607
-0.065129533 -0.0065634418 0.35139412
-0.064029284 -0.0065541789 0.35089821
-0.062945552 -0.0065463372 0.35047838
-0.061872281 -0.0065393467 0.35010412
-0.060801297 -0.006532371 0.34973064
-0.059743058 -0.0065265526 0.34941915
-0.058697361 -0.0065219291 0.34917161
-0.057662882 -0.0065184128 0.34898335
-0.056631021 -0.0065150731 0.34880456
-0.055607777 -0.0065126223 0.34867334
-0.054586612 -0.0065103299 0.34855062
-0.0535805 -0.0065097804 0.3485212
-0.052581795 -0.0065101269 0.34853974
-0.051588211 -0.0065111332 0.34859362
-0.050606731 -0.0065137381 0.34873307
-0.049623504 -0.0065162177 0.34886584
-0.048634384 -0.0065180101 0.3489618
-0.047643408 -0.0065196245 0.34904823
-0.046654727 -0.0065216287 0.34915552
-0.045669764 -0.0065242518 0.34929597
-0.044685867 -0.0065271487 0.34945107
-0.043709926 -0.0065313685 0.34967697
-0.042734358 -0.0065358435 0.34991655
-0.041766543 -0.0065417476 0.35023266
-0.040804472 -0.0065488657 0.35061374
-0.039832652 -0.00655474 0.35092825
-0.038865525 -0.0065617124 0.35130152
-0.037899211 -0.0065691965 0.35170221
-0.036930554 -0.0065766741 0.35210255
-0.035963185 -0.0065848082 0.35253805
-0.034994829 -0.0065932283 0.35298884
-0.034024432 -0.0066017555 0.35344535
-0.03305367 -0.0066107339 0.35392606
-0.032081377 -0.0066199661 0.35442033
-0.031108513 -0.0066296831 0.35494056
-0.030137729 -0.0066405162 0.35552055
-0.029181419 -0.0066554113 0.356318
-0.028234459 -0.0066735996 0.35729176
-0.027298898 -0.006695956 0.35848868
-0.026340626 -0.0067142774 0.35946956
-0.025381505 -0.0067338687 0.36051846
-0.024427697 -0.0067565972 0.36173528
-0.023463998 -0.0067784879 0.36290729
-0.022513585 -0.0068064327 0.3644034
-0.021551382 -0.0068333652 0.36584529
-0.020603921 -0.0068679736 0.36769816
-0.019652534 -0.0069049443 0.36967751
-0.018703915 -0.0069471686 0.37193811
-0.017763685 -0.0069978153 0.37464964
-0.016837398 -0.0070608445 0.3780241
-0.084215559 -0.0058262334 0.36863911
-0.082571357 -0.0057852543 0.36604625
-0.081013463 -0.0057493425 0.36377403
-0.079574592 -0.0057210494 0.36198387
-0.078209929 -0.005697412 0.36048827
-0.076885425 -0.0056761052 0.35914016
-0.075598776 -0.0056570512 0.35793456
-0.074360877 -0.0056411698 0.35692972
-0.073162355 -0.0056278738 0.35608843
-0.071960025 -0.005613903 0.35520446
-0.070756555 -0.0055994396 0.35428935
-0.069594949 -0.0055879159 0.35356021
-0.068453103 -0.0055776606 0.35291132
-0.067322217 -0.0055680028 0.35230026
-0.066200115 -0.0055587883 0.35171723
-0.065088168 -0.0055501536 0.3511709
-0.0639842 -0.0055419384 0.35065112
-0.062900625 -0.0055352552 0.35022825
-0.061823383 -0.0055289208 0.34982744
-0.060756102 -0.0055232821 0.34947067
-0.059699781 -0.0055184672 0.34916604
-0.058655072 -0.0055145794 0.34892005
-0.057621159 -0.0055115889 0.34873083
-0.05659385 -0.0055091358 0.34857562
-0.055573549 -0.0055072885 0.34845874
-0.054557223 -0.0055057746 0.34836295
-0.053547107 -0.0055048428 0.34830397
-0.052552704 -0.0055055213 0.34834692
-0.051561605 -0.0055065793 0.34841385
-0.050574888 -0.005508156 0.34851363
-0.049583882 -0.0055093202 0.34858727
-0.048599772 -0.0055113146 0.34871346
-0.047614425 -0.0055132494 0.34883589
-0.046632059 -0.0055156201 0.34898588
-0.045651115 -0.0055182665 0.34915334
-0.044662043 -0.0055200276 0.34926477
-0.043687865 -0.0055237529 0.34950048
-0.04271435 -0.0055277394 0.34975269
-0.041745175 -0.0055324933 0.35005349
-0.040781278 -0.0055381982 0.35041445
-0.039810985 -0.0055433018 0.35073736
-0.03884523 -0.0055493186 0.35111806
-0.037880939 -0.0055558709 0.35153264
-0.03691265 -0.0055621802 0.35193184
-0.035941761 -0.0055684419 0.35232803
-0.034970347 -0.0055749826 0.3527419
-0.033999424 -0.005581995 0.35318559
-0.033028923 -0.0055895103 0.35366109
-0.032061681 -0.0055980715 0.35420278
-0.031089423 -0.0056062895 0.35472274
-0.030131172 -0.0056176763 0.35544321
-0.029162167 -0.0056277867 0.35608292
-0.028223712 -0.0056447424 0.35715574
-0.027278479 -0.0056615714 0.35822055
-0.026321592 -0.005677206 0.35920981
-0.025356356 -0.0056922436 0.36016124
-0.024402078 -0.0057111247 0.3613559
-0.023447782 -0.0057316804 0.3626565
-0.022488067 -0.0057527614 0.36399037
-0.021529233 -0.0057761357 0.36546931
-0.02057554 -0.0058033573 0.36719167
-0.019617882 -0.0058323429 0.36902568
-0.018664299 -0.0058659222 0.37115031
-0.017717855 -0.0059059518 0.37368307
-0.016782181 -0.0059549678 0.37678441
-0.08616022 -0.0048164097 0.37246642
-0.084024027 -0.0047560767 0.36780071
-0.082400315 -0.0047235852 0.36528802
-0.08088316 -0.0046964418 0.36318895
-0.079469137 -0.0046746549 0.36150414
-0.078117177 -0.0046559907 0.36006075
-0.076793715 -0.0046385466 0.35871175
-0.075524457 -0.0046239463 0.35758269
-0.07429228 -0.0046112449 0.35660046
-0.073096417 -0.0046004737 0.35576749
-0.071895026 -0.0045890445 0.35488361
-0.070696741 -0.0045774868 0.35398984
-0.069535777 -0.0045680441 0.35325959
-0.068402402 -0.0045601605 0.35264993
-0.067274265 -0.0045523937 0.35204932
-0.066156939 -0.0045451331 0.35148785
-0.065046847 -0.0045381519 0.35094798
-0.063949175 -0.004531831 0.35045916
-0.062855855 -0.0045256214 0.34997895
-0.061781686 -0.0045206114 0.34959149
-0.060714874 -0.0045159827 0.34923354
-0.059658326 -0.0045119743 0.34892356
-0.058619589 -0.0045091989 0.34870896
-0.057582464 -0.0045064534 0.34849665
-0.05655795 -0.0045046154 0.34835449
-0.055544984 -0.0045036473 0.34827963
-0.054527488 -0.0045022694 0.34817308
-0.053519662 -0.0045016538 0.34812546
-0.052519083 -0.0045016357 0.34812406
-0.051531527 -0.0045027547 0.3482106
-0.050543778 -0.0045039011 0.34829924
-0.049547587 -0.0045043258 0.34833211
-0.048565056 -0.0045060362 0.34846437
-0.047581472 -0.0045077186 0.34859446
-0.046603974 -0.0045100618 0.34877568
-0.045628089 -0.0045126681 0.34897724
-0.044643834 -0.0045145452 0.34912238
-0.043666862 -0.0045172614 0.34933245
-0.042695608 -0.0045207115 0.34959924
-0.041726008 -0.0045245071 0.34989277
-0.040758114 -0.0045286794 0.35021544
-0.03979649 -0.0045337775 0.35060966
-0.038831398 -0.0045387349 0.35099304
-0.037863005 -0.0045435606 0.35136622
-0.036894079 -0.004548585 0.35175478
-0.03592198 -0.0045534903 0.35213414
-0.03495454 -0.0045592878 0.35258245
-0.033984855 -0.0045651295 0.35303423
-0.03301369 -0.0045711263 0.35349798
-0.032046247 -0.0045780358 0.35403228
-0.03107423 -0.0045847222 0.35454938
-0.030113498 -0.0045935842 0.35523471
-0.02914496 -0.0046018357 0.35587281
-0.028200114 -0.0046145641 0.35685712
-0.027255282 -0.0046282555 0.35791591
-0.026297942 -0.004640813 0.35888705
-0.025337478 -0.0046538222 0.35989308
-0.02438096 -0.0046686945 0.36104318
-0.023425927 -0.0046851854 0.36231849
-0.022466116 -0.0047022104 0.36363506
-0.021506852 -0.0047210162 0.36508936
-0.020547483 -0.0047417269 0.36669099
-0.019589946 -0.0047651222 0.3685002
-0.018631313 -0.0047909091 0.37049437
-0.017680857 -0.0048220521 0.37290275
-0.016739534 -0.0048598647 0.3758269
-0.015819026 -0.0049093533 0.37965399
-0.085752353 -0.003728363 0.37070322
-0.083871633 -0.0036924619 0.36713365
-0.082254961 -0.0036674184 0.36464363
-0.080781125 -0.0036481798 0.36273077
-0.079381011 -0.0036318111 0.36110327
-0.078026153 -0.0036171065 0.35964122
-0.076710731 -0.00360386 0.35832414
-0.075438581 -0.0035923135 0.3571761
-0.074233592 -0.0035836906 0.35631874
-0.073034391 -0.0035751099 0.35546559
-0.071835227 -0.0035662882 0.35458845
-0.070641287 -0.0035574748 0.35371217
-0.069479816 -0.0035500636 0.35297528
-0.068353981 -0.0035442803 0.35240027
-0.067230307 -0.0035384372 0.35181931
-0.066112101 -0.0035327075 0.35124961
-0.065006927 -0.0035275077 0.35073259
-0.063910924 -0.0035226494 0.35024956
-0.062824026 -0.0035181453 0.34980172
-0.061749969 -0.0035142261 0.34941202
-0.060687572 -0.0035108512 0.34907648
-0.059633669 -0.0035078628 0.34877935
-0.058590509 -0.0035054151 0.34853598
-0.057553347 -0.0035032472 0.34832042
-0.056528855 -0.0035017873 0.34817529
-0.055517234 -0.003501087 0.34810564
-0.05450552 -0.0035003545 0.3480328
-0.053497918 -0.0034998637 0.34798402
-0.052493118 -0.0034995412 0.34795195
-0.051507428 -0.0035005049 0.34804776
-0.050518539 -0.0035012849 0.34812531
-0.049520858 -0.0035014749 0.3481442
-0.048532307 -0.0035023314 0.34822938
-0.047546756 -0.0035034453 0.34834012
-0.046571717 -0.0035053981 0.34853429
-0.045598432 -0.0035075718 0.34875041
-0.044624388 -0.0035097832 0.34897029
-0.043648805 -0.0035119727 0.349188
-0.0426776 -0.0035146258 0.34945178
-0.041710295 -0.0035177355 0.34976098
-0.040746644 -0.0035213151 0.35011688
-0.039785322 -0.0035252818 0.35051128
-0.038820006 -0.0035290914 0.35089007
-0.037850771 -0.0035327387 0.3512527
-0.03688293 -0.0035367191 0.35164848
-0.035909329 -0.0035403564 0.35201013
-0.034939785 -0.0035446158 0.35243362
-0.033970654 -0.0035491728 0.35288671
-0.033002023 -0.0035540638 0.35337302
-0.032034773 -0.0035594192 0.3539055
-0.031069728 -0.0035653787 0.35449803
-0.030104315 -0.0035716984 0.35512638
-0.029143905 -0.0035790761 0.35585994
-0.028191453 -0.0035880031 0.35674754
-0.027243659 -0.0035982192 0.35776329
-0.026285795 -0.0036078542 0.35872129
-0.025323546 -0.0036176494 0.3596952
-0.024366351 -0.0036290311 0.36082685
-0.023412576 -0.0036419563 0.36211199
-0.02244826 -0.003654368 0.36334604
-0.021485958 -0.0036683341 0.36473468
-0.020525543 -0.0036840721 0.36629945
-0.019571265 -0.003702672 0.3681488
-0.018608848 -0.0037217697 0.37004766
-0.017654292 -0.0037448499 0.37234247
-0.016706692 -0.0037724788 0.37508956
-0.015777795 -0.003808433 0.3786644
-0.085549347 -0.0026568121 0.36982566
-0.083761409 -0.0026340066 0.36665115
-0.082137808 -0.0026158537 0.3641243
-0.080680549 -0.0026025982 0.36227915
-0.07929346 -0.0025912896 0.36070499
-0.077951647 -0.0025811805 0.35929781
-0.076643482 -0.0025719288 0.35800999
-0.075382814 -0.0025640412 0.35691205
-0.074159481 -0.0025572234 0.35596302
-0.072961271 -0.0025510935 0.35510972
-0.0717749 -0.0025452091 0.35429063
-0.070597298 -0.002539471 0.3534919
-0.069438756 -0.0025342612 0.35276669
-0.06830845 -0.0025299427 0.35216555
-0.067188136 -0.0025258698 0.35159862
-0.066077739 -0.0025220511 0.35106707
-0.06496843 -0.0025181563 0.3505249
-0.063879989 -0.0025149602 0.35008001
-0.062798388 -0.0025119355 0.349659
-0.061726455 -0.0025092054 0.34927896
-0.060665332 -0.0025068319 0.34894857
-0.05961483 -0.0025048247 0.34866917
-0.058571428 -0.0025030524 0.34842247
-0.057534222 -0.0025014877 0.34820467
-0.056507908 -0.0025003499 0.34804627
-0.055494394 -0.0024997473 0.34796241
-0.054486446 -0.0024993783 0.34791103
-0.053485524 -0.0024993236 0.3479034
-0.052490775 -0.0024995608 0.34793642
-0.051498007 -0.0024999033 0.34798411
-0.050504096 -0.0025002027 0.3480258
-0.049513571 -0.0025006854 0.34809297
-0.048507452 -0.0025003841 0.34805104
-0.047518067 -0.0025009508 0.34812993
-0.046545148 -0.0025024272 0.34833544
-0.045577094 -0.0025042361 0.34858721
-0.044607345 -0.0025060305 0.34883702
-0.04363402 -0.0025077022 0.34906971
-0.042663254 -0.0025096033 0.34933433
-0.041697666 -0.0025119076 0.34965509
-0.040736068 -0.0025145721 0.35002598
-0.039774448 -0.00251737 0.35041547
-0.038807612 -0.0025199747 0.35077804
-0.037840091 -0.0025226728 0.35115358
-0.036872339 -0.0025255026 0.35154751
-0.0359024 -0.002528338 0.35194218
-0.03492989 -0.0025311515 0.35233381
-0.033962842 -0.0025345406 0.35280558
-0.032995883 -0.0025381451 0.35330731
-0.03202844 -0.0025419397 0.35383552
-0.031063473 -0.0025461863 0.35442665
-0.030097179 -0.0025506085 0.35504222
-0.029136935 -0.0025558714 0.35577482
-0.028180242 -0.00256184 0.35660565
-0.027228082 -0.0025686871 0.35755873
-0.026271798 -0.0025756664 0.35853025
-0.02531277 -0.0025829356 0.35954213
-0.024353772 -0.0025908269 0.36064059
-0.023398323 -0.0025998137 0.36189154
-0.022435596 -0.0026087903 0.36314106
-0.021472603 -0.0026186102 0.36450797
-0.02051088 -0.0026296 0.36603776
-0.019554501 -0.0026425002 0.36783347
-0.01859476 -0.0026563944 0.36976752
-0.017630665 -0.0026713128 0.37184414
-0.016680963 -0.002690478 0.37451193
-0.015745858 -0.002714803 0.37789795
-0.085408174 -0.0015914567 0.36921537
-0.083655246 -0.0015784008 0.36618644
-0.08207307 -0.0015682752 0.3638373
-0.080622762 -0.0015604406 0.36201969
-0.079221375 -0.0015533603 0.36037707
-0.077881403 -0.0015473126 0.35897401
-0.076583304 -0.0015419457 0.3577289
-0.075332478 -0.0015373975 0.35667372
-0.07411094 -0.0015333298 0.35573003
-0.072913297 -0.0015296496 0.35487622
-0.071725681 -0.0015260784 0.35404772
-0.070572428 -0.0015231459 0.35336739
-0.069417685 -0.0015200953 0.35265964
-0.068271555 -0.0015171457 0.35197532
-0.067154311 -0.0015147588 0.35142159
-0.066044666 -0.0015124733 0.35089135
-0.064931847 -0.0015100429 0.35032752
-0.06384442 -0.0015081358 0.34988508
-0.062771946 -0.0015065266 0.34951174
-0.061707355 -0.0015050574 0.34917089
-0.060639944 -0.0015034698 0.34880254
-0.059595868 -0.0015024169 0.34855828
-0.058556281 -0.0015014431 0.34833238
-0.057520766 -0.0015005417 0.34812325
-0.056498051 -0.0014999482 0.34798557
-0.055483751 -0.0014995608 0.34789568
-0.054474298 -0.0014992926 0.34783345
-0.05347776 -0.0014993765 0.34785292
-0.052483361 -0.0014995246 0.34788728
-0.051489491 -0.001499694 0.34792656
-0.050494451 -0.0014998352 0.34795934
-0.049500629 -0.001500019 0.34800199
-0.048488595 -0.0014996473 0.34791574
-0.047505308 -0.0015001677 0.34803647
-0.046534825 -0.0015011234 0.3482582
-0.045566306 -0.0015021859 0.34850469
-0.044596773 -0.001503262 0.34875435
-0.043624658 -0.0015042985 0.34899482
-0.042653132 -0.0015054047 0.34925145
-0.041692235 -0.0015069483 0.34960955
-0.040730108 -0.0015085225 0.34997478
-0.039766144 -0.0015101067 0.3503423
-0.038799159 -0.0015116555 0.35070163
-0.03783166 -0.0015132664 0.35107535
-0.036864474 -0.0015149784 0.35147253
-0.035895009 -0.0015166905 0.35186973
-0.034923222 -0.001518401 0.35226655
-0.033956125 -0.0015204235 0.35273579
-0.0329892 -0.0015225785 0.35323575
-0.032022879 -0.001524899 0.3537741
-0.03105711 -0.0015273988 0.35435405
-0.030092299 -0.0015301169 0.35498464
-0.029131906 -0.0015332582 0.35571343
-0.028170953 -0.0015365974 0.35648811
-0.027215209 -0.0015404836 0.35738969
-0.026258232 -0.0015446019 0.35834512
-0.025299883 -0.0015489724 0.35935909
-0.024342937 -0.0015538045 0.36048013
-0.023385035 -0.0015590023 0.36168602
-0.022422364 -0.001564351 0.3629269
-0.02146101 -0.0015703178 0.36431119
-0.0205015 -0.0015770384 0.36587036
-0.019538879 -0.0015842334 0.36753958
-0.018580725 -0.0015926337 0.36948842
-0.017616088 -0.0016014625 0.3715367
-0.016664106 -0.0016126554 0.37413344
-0.01572133 -0.0016263445 0.37730929
-0.085306644 -0.00052985497 0.36877647
-0.083556436 -0.00052551215 0.36575392
-0.082007945 -0.00052234362 0.36354861
-0.080573872 -0.00051983143 0.36180013
-0.079158321 -0.0005173746 0.36009023
-0.077827714 -0.00051541533 0.35872656
-0.076543517 -0.00051371485 0.35754305
-0.075291052 -0.00051218399 0.35647759
-0.074079476 -0.00051089295 0.35557902
-0.072883666 -0.000509676 0.35473201
-0.071707033 -0.00050856051 0.35395566
-0.070547462 -0.0005075357 0.35324237
-0.069399722 -0.0005065673 0.35256839
-0.068258964 -0.00050562195 0.35191041
-0.067124367 -0.00050469453 0.35126492
-0.066014901 -0.00050393055 0.35073322
-0.064908922 -0.0005031699 0.35020381
-0.063822746 -0.00050254131 0.34976631
-0.062755793 -0.00050204631 0.3494218
-0.061693579 -0.00050157378 0.34909293
-0.060629338 -0.00050106889 0.34874153
-0.059582349 -0.000500692 0.34847921
-0.058544271 -0.00050037837 0.34826091
-0.057510953 -0.00050009525 0.34806386
-0.05648306 -0.00049985008 0.34789324
-0.055478733 -0.0004998084 0.34786421
-0.054475594 -0.0004997761 0.34784174
-0.053471241 -0.00049973122 0.34781051
-0.052473743 -0.00049974996 0.34782353
-0.051480372 -0.00049980939 0.34786493
-0.050485522 -0.00049985666 0.3478978
-0.049491499 -0.00049991411 0.34793779
-0.048489101 -0.00049988762 0.34791937
-0.047498956 -0.00049998902 0.34798992
-0.046528459 -0.00050030602 0.34821054
-0.045558341 -0.00050064112 0.34844378
-0.044589162 -0.00050100184 0.34869483
-0.043621089 -0.00050139183 0.34896627
-0.042652924 -0.00050179911 0.34924972
-0.041689362 -0.00050228147 0.34958547
-0.040725924 -0.00050278922 0.34993884
-0.039760292 -0.00050329481 0.35029075
-0.038793609 -0.00050381309 0.35065147
-0.037826024 -0.00050434697 0.35102305
-0.036856808 -0.00050488778 0.35139945
-0.035887621 -0.00050545944 0.35179731
-0.034918215 -0.00050606113 0.35221606
-0.033949062 -0.0005067024 0.35266241
-0.032983541 -0.00050743908 0.35317513
-0.032018367 -0.00050822803 0.35372424
-0.031054111 -0.00050908379 0.35431984
-0.030090937 -0.00051001587 0.35496858
-0.029127877 -0.00051101536 0.35566422
-0.028166151 -0.00051211182 0.35642734
-0.027207585 -0.00051335065 0.35728955
-0.026250709 -0.00051471975 0.35824245
-0.025289467 -0.00051611156 0.35921115
-0.024332486 -0.0005177125 0.36032537
-0.023373138 -0.00051940308 0.36150202
-0.022414466 -0.00052126666 0.36279905
-0.021452842 -0.00052324007 0.36417255
-0.020491336 -0.00052541884 0.36568898
-0.019531611 -0.00052788138 0.36740288
-0.018568953 -0.00053054153 0.36925432
-0.017605206 -0.00053349108 0.37130719
-0.016658623 -0.00053737493 0.37401032
-0.015709685 -0.00054171326 0.37702981
-0.01487508 -0.00055092887 0.3834438
-0.085242756 0.00052945811 0.36850026
-0.083497316 0.00052514032 0.36549512
-0.081961952 0.00052205066 0.3633447
-0.080527619 0.00051953306 0.36159247
-0.079126872 0.00051716907 0.35994717
-0.077789731 0.00051516382 0.3585515
-0.076515079 0.00051352405 0.35741022
-0.075266361 0.00051201606 0.3563607
-0.074059546 0.00051075546 0.35548332
-0.072875679 0.00050962012 0.35469311
-0.071697727 0.0005084945 0.3539097
-0.070524625 0.00050737138 0.35312802
-0.069382586 0.00050644221 0.35248134
-0.068243317 0.00050550606 0.35182977
-0.067107551 0.00050456804 0.35117692
-0.065992825 0.00050376204 0.35061592
-0.064897664 0.0005030827 0.3501431
-0.06380941 0.00050243631 0.34969324
-0.062738821 0.00050191052 0.3493273
-0.061679106 0.00050145615 0.34901103
-0.060621567 0.00050100469 0.34869683
-0.059573948 0.00050062139 0.34843007
-0.058535933 0.00050030713 0.34821132
-0.0575049 0.00050004263 0.34802723
-0.056477681 0.00049980247 0.3478601
-0.055473309 0.00049975951 0.34783021
-0.054470822 0.00049973233 0.34781125
-0.053461194 0.00049963733 0.34774515
-0.052464735 0.00049966411 0.34776381
-0.051471032 0.00049971876 0.34780183
-0.05047857 0.00049978786 0.34784991
-0.04948872 0.00049988605 0.34791827
-0.04849289 0.00049992668 0.34794655
-0.047508914 0.00050009385 0.34806287
-0.046532337 0.0005003477 0.34823957
-0.045554031 0.00050059374 0.34841082
-0.044591825 0.00050103175 0.34871566
-0.04362338 0.00050141814 0.3489846
-0.042652711 0.0005017966 0.34924799
-0.041687422 0.00050225813 0.3495692
-0.040722821 0.00050275086 0.34991217
-0.039756905 0.00050325197 0.35026091
-0.038789533 0.00050376018 0.35061464
-0.037822146 0.00050429528 0.35098705
-0.036852907 0.00050483434 0.35136226
-0.035881769 0.00050537701 0.35173994
-0.034913145 0.00050598761 0.35216492
-0.033944335 0.00050663186 0.3526133
-0.032980207 0.0005073878 0.35313943
-0.032015961 0.00050818984 0.35369766
-0.031055236 0.00050910225 0.35433269
-0.030094754 0.0005100806 0.35501361
-0.029133171 0.00051110826 0.35572886
-0.028170813 0.00051219662 0.35648635
-0.027203821 0.00051327964 0.35724014
-0.026246129 0.00051463 0.35817996
-0.025280435 0.00051592721 0.35908285
-0.024325261 0.00051755877 0.36021838
-0.023367858 0.00051928574 0.36142033
-0.022406869 0.00052108994 0.36267608
-0.021446077 0.00052307505 0.36405769
-0.020486725 0.00052530062 0.3656067
-0.019526171 0.00052773434 0.36730054
-0.018566122 0.00053046062 0.36919802
-0.017601924 0.00053339166 0.37123799
-0.016654333 0.00053723657 0.37391403
-0.01570061 0.00054140034 0.37681201
-0.014839917 0.00054962659 0.38253742
-0.085233606 0.0015882038 0.36846071
-0.08348202 0.0015751325 0.36542818
-0.081926078 0.0015654664 0.36318567
-0.080481112 0.0015576989 0.36138362
-0.079098821 0.0015509572 0.35981956
-0.077776477 0.0015452281 0.35849041
-0.076499522 0.0015402589 0.35733756
-0.075247124 0.0015356556 0.3562696
-0.074055366 0.00153218 0.35546327
-0.072878674 0.0015289233 0.35470772
-0.071704865 0.0015256355 0.35394496
-0.070532307 0.00152228 0.35316649
-0.069375612 0.001519174 0.3524459
-0.068227559 0.0015161679 0.3517485
-0.067090683 0.0015133237 0.35108864
-0.065970883 0.0015107836 0.35049933
-0.064881429 0.0015088704 0.35005549
-0.063800037 0.0015070875 0.34964186
-0.062723972 0.0015053754 0.34924465
-0.061669044 0.0015041231 0.34895411
-0.060616739 0.0015028943 0.34866905
-0.059568696 0.0015017318 0.34839934
-0.058532875 0.001500843 0.34819314
-0.057503331 0.0015000869 0.34801772
-0.056480892 0.0014994928 0.34787989
-0.055467714 0.0014991274 0.34779513
-0.054466613 0.001499081 0.34778437
-0.053463649 0.0014989808 0.34776112
-0.052466258 0.001499036 0.34777391
-0.051471144 0.0014991595 0.34780258
-0.050476052 0.0014992886 0.34783253
-0.049490314 0.0014997065 0.34792948
-0.048500575 0.0015000177 0.34800169
-0.047517441 0.0015005508 0.34812534
-0.046540141 0.0015012949 0.34829798
-0.045570601 0.0015023275 0.34853753
-0.044601191 0.0015034109 0.34878889
-0.043626435 0.0015043598 0.34900904
-0.042657088 0.0015055443 0.34928384
-0.0416914 0.0015069181 0.34960255
-0.040723786 0.0015082883 0.34992045
-0.039755728 0.0015097111 0.35025054
-0.038788214 0.0015112292 0.35060272
-0.037819408 0.0015127764 0.35096166
-0.036847696 0.0015142889 0.35131258
-0.035877675 0.0015159581 0.35169983
-0.034908485 0.0015177601 0.3521179
-0.033942688 0.0015198218 0.35259619
-0.032980271 0.0015221663 0.35314012
-0.032018203 0.0015246762 0.35372242
-0.031053877 0.0015272398 0.35431716
-0.030093461 0.001530176 0.35499835
-0.029131172 0.0015332196 0.35570446
-0.028169911 0.0015365407 0.35647494
-0.027203506 0.001539821 0.357236
-0.026243081 0.0015437107 0.35813838
-0.025279341 0.0015477148 0.35906732
-0.024320085 0.0015523458 0.36014172
-0.023365477 0.0015576985 0.36138353
-0.022400308 0.0015628122 0.3625699
-0.021441717 0.001568906 0.36398366
-0.020482304 0.0015755618 0.36552778
-0.019523757 0.0015830073 0.36725512
-0.018564578 0.0015912496 0.36916733
-0.01760192 0.0016001746 0.3712379
-0.016651301 0.0016114162 0.37384596
-0.015695162 0.0016236374 0.37668124
-0.01482156 0.00164684 0.38206422
-0.08521954 0.0026465696 0.36839992
-0.083483644 0.0026252717 0.36543527
-0.08188422 0.0026077777 0.36300012
-0.08043769 0.0025947641 0.36118865
-0.079082713 0.0025844024 0.35974631
-0.077767067 0.0025750685 0.35844702
-0.076490372 0.0025667909 0.3572948
-0.075247824 0.00255945 0.35627294
-0.074056104 0.0025536588 0.35546681
-0.072879598 0.0025482376 0.35471219
-0.07170824 0.0025428454 0.35396162
-0.070536725 0.0025372922 0.3531886
-0.069372974 0.0025318603 0.35243249
-0.068217449 0.002526572 0.35169637
-0.067084879 0.002521988 0.35105827
-0.065959759 0.0025175479 0.35044023
-0.064870194 0.0025143486 0.34999487
-0.063792393 0.0025115116 0.34959996
-0.062719755 0.00250879 0.34922114
-0.061661497 0.0025065651 0.3489114
-0.060612049 0.0025046302 0.34864208
-0.059567109 0.0025028198 0.34839007
-0.058536503 0.0025015599 0.34821472
-0.057512082 0.0025005252 0.34807068
-0.056491669 0.0024996314 0.34794626
-0.055476669 0.0024989489 0.34785128
-0.054472957 0.0024987597 0.3478249
-0.053467814 0.0024984961 0.34778821
-0.052466653 0.002498412 0.34777653
-0.051467597 0.0024984272 0.34777862
-0.050476957 0.0024988593 0.34783879
-0.049497552 0.0024998763 0.34798035
-0.048507504 0.0025003867 0.3480514
-0.047525033 0.0025013175 0.34818098
-0.046550468 0.0025027134 0.34837526
-0.045581188 0.0025044607 0.34861851
-0.04461081 0.0025062251 0.34886411
-0.043634482 0.0025077288 0.34907341
-0.042664375 0.0025096692 0.34934351
-0.041695226 0.0025117607 0.34963465
-0.040727179 0.0025140236 0.34994963
-0.039758649 0.0025163703 0.35027629
-0.03878938 0.0025187908 0.35061324
-0.03781892 0.0025212613 0.35095713
-0.036847308 0.0025237883 0.35130888
-0.035876539 0.0025265168 0.35168868
-0.034910042 0.0025297133 0.35213363
-0.033945389 0.0025332379 0.35262427
-0.032984719 0.0025372859 0.35318774
-0.032020509 0.0025413104 0.35374793
-0.031061754 0.0025460455 0.35440704
-0.030097909 0.0025506704 0.35505083
-0.029131811 0.002555422 0.35571226
-0.028165609 0.0025605098 0.35642049
-0.027199456 0.0025659865 0.35718283
-0.026237829 0.002572336 0.35806668
-0.025278443 0.0025794329 0.35905457
-0.024317808 0.0025870011 0.36010802
-0.023359159 0.0025954621 0.36128581
-0.022396998 0.002604302 0.36251631
-0.021441171 0.0026147768 0.36397439
-0.020478247 0.0026254163 0.36545539
-0.019521473 0.0026380369 0.36721218
-0.018562473 0.0026517818 0.36912546
-0.017603433 0.0026671868 0.37126979
-0.01665074 0.0026856032 0.37383336
-0.015696898 0.0027063617 0.3767229
-0.014803823 0.0027414488 0.381607
-0.085233442 0.0037058017 0.36846
-0.083484739 0.0036754287 0.36544007
-0.081866778 0.0036501109 0.36292279
-0.080407359 0.0036313001 0.36105245
-0.079062879 0.0036172557 0.35965607
-0.077764727 0.0036049872 0.35843623
-0.076497018 0.0035938197 0.35732585
-0.075249359 0.0035833027 0.35628018
-0.074053168 0.0035749804 0.35545272
-0.072879262 0.0035675163 0.35471058
-0.071711041 0.0035601228 0.35397545
-0.070538647 0.0035523062 0.35319826
-0.069371194 0.0035445136 0.35242346
-0.068213344 0.003536988 0.35167521
-0.067079291 0.003530489 0.35102904
-0.065956317 0.0035243831 0.35042194
-0.064863257 0.0035197118 0.34995747
-0.06378606 0.0035157669 0.34956524
-0.062717363 0.0035121725 0.34920785
-0.06165871 0.0035090323 0.34889564
-0.06061079 0.0035064095 0.34863484
-0.059570123 0.0035041247 0.34840769
-0.058537316 0.0035022325 0.34821954
-0.057514563 0.0035008865 0.3480857
-0.056496315 0.0034997717 0.34797487
-0.055482466 0.0034988944 0.34788764
-0.054479852 0.003498706 0.34786892
-0.053482626 0.0034988634 0.34788457
-0.052474286 0.0034982858 0.34782714
-0.051470451 0.0034979919 0.3477979
-0.050485764 0.0034990134 0.34789947
-0.04950485 0.0035003431 0.34803167
-0.04851646 0.003501188 0.34811568
-0.047538944 0.0035028695 0.34828287
-0.046560787 0.0035045752 0.34845248
-0.045588039 0.0035067725 0.34867093
-0.044620838 0.0035095043 0.34894255
-0.043646581 0.0035117939 0.34917021
-0.042670414 0.0035140342 0.34939295
-0.041700866 0.0035169404 0.34968191
-0.040734071 0.0035202284 0.35000885
-0.039764207 0.0035234108 0.35032526
-0.038793083 0.0035266438 0.3506467
-0.037823197 0.0035301652 0.35099682
-0.036848474 0.0035334153 0.35131997
-0.035878707 0.0035373373 0.35170993
-0.034914777 0.0035420789 0.35218138
-0.033951055 0.0035471253 0.35268313
-0.032989338 0.0035526978 0.35323721
-0.032028969 0.0035587742 0.35384136
-0.031068241 0.0035652081 0.35448107
-0.030102272 0.0035714558 0.35510227
-0.029133337 0.0035777781 0.35573089
-0.028171372 0.0035854473 0.35649341
-0.027202416 0.0035927719 0.35722169
-0.026238188 0.0036013199 0.3580716
-0.025277328 0.0036110468 0.35903871
-0.024316475 0.0036216027 0.36008826
-0.023353839 0.0036328195 0.36120352
-0.022398893 0.0036463314 0.36254698
-0.0214443 0.0036612221 0.36402753
-0.02048263 0.0036763693 0.36553359
-0.019523984 0.0036937268 0.36725941
-0.018564755 0.0037129512 0.36917084
-0.017607035 0.0037348256 0.37134579
-0.016654732 0.0037607457 0.37392297
-0.015701674 0.0037900591 0.37683752
-0.014799196 0.0038368287 0.38148773
-0.085265674 0.0047664042 0.36859936
-0.083483316 0.0047254707 0.36543384
-0.081903152 0.0046950853 0.36308405
-0.080419101 0.0046694959 0.36110517
-0.079049774 0.0046499865 0.35959646
-0.077776536 0.0046356875 0.35849068
-0.076505639 0.0046211458 0.35736611
-0.075247601 0.0046069957 0.35627186
-0.074054971 0.0045965156 0.35546139
-0.07287655 0.0045866361 0.35469738
-0.071707822 0.0045770947 0.35395953
-0.070532434 0.0045668483 0.35316715
-0.069369443 0.0045571164 0.35241455
-0.068210803 0.0045473869 0.35166213
-0.067073509 0.0045388089 0.35099876
-0.06595853 0.0045315018 0.35043371
-0.064859293 0.0045250668 0.34993607
-0.063782901 0.0045200484 0.34954795
-0.062717602 0.0045156674 0.34920916
-0.061663687 0.0045119771 0.3489238
-0.060618132 0.0045087868 0.34867707
-0.059578586 0.0045059435 0.34845719
-0.058546212 0.0045035547 0.34827247
-0.057518832 0.0045014736 0.34811154
-0.056502674 0.0045002126 0.34801403
-0.055488795 0.0044990913 0.3479273
-0.054485254 0.0044987821 0.3479034
-0.05348986 0.0044991472 0.34793162
-0.052486423 0.0044988361 0.34790757
-0.051491268 0.0044992371 0.34793857
-0.050495677 0.0044996147 0.34796777
-0.049508568 0.0045007789 0.34805781
-0.048525158 0.0045023342 0.34817809
-0.0475506 0.0045047938 0.34836829
-0.046576738 0.0045074262 0.34857187
-0.045600966 0.0045099854 0.34876978
-0.044626769 0.0045128195 0.34898892
-0.043652624 0.0045157885 0.34921855
-0.042682625 0.0045193369 0.34949294
-0.041708671 0.0045226268 0.34974736
-0.040743664 0.0045270738 0.35009125
-0.039772589 0.0045310543 0.35039908
-0.038800292 0.004535099 0.35071188
-0.037830155 0.0045396183 0.35106137
-0.03686009 0.004544395 0.35143074
-0.035890982 0.0045495611 0.35183027
-0.034924161 0.0045553255 0.35227603
-0.03396732 0.0045627742 0.35285208
-0.033003356 0.0045696958 0.35338733
-0.03204073 0.004577247 0.3539713
-0.03107661 0.0045850738 0.35457656
-0.030111223 0.0045932378 0.35520789
-0.029143292 0.0046015726 0.35585245
-0.028172387 0.0046100267 0.35650626
-0.027203301 0.0046194284 0.35723332
-0.026241861 0.0046309168 0.35812172
-0.025281014 0.0046434514 0.35909107
-0.024322381 0.0046574771 0.36017573
-0.023361769 0.0046723536 0.36132616
-0.022404976 0.0046894136 0.36264545
-0.021452168 0.0047090123 0.36416107
-0.020488624 0.004728144 0.36564058
-0.019530399 0.0047506378 0.36738008
-0.018573295 0.0047759903 0.36934066
-0.017614115 0.0048038494 0.3714951
-0.016662817 0.0048375921 0.3741045
-0.015711043 0.0048758406 0.37706238
-0.014814729 0.004938243 0.38188812
-0.085333489 0.0058302381 0.36889249
-0.083519787 0.0057780985 0.36559349
-0.081953287 0.0057419501 0.36330631
-0.080453776 0.005709623 0.36126089
-0.079056978 0.0056838351 0.35962924
-0.077781066 0.0056661703 0.35851154
-0.076516703 0.0056488845 0.35741782
-0.075256869 0.0056314664 0.35631576
-0.074065231 0.0056187417 0.35551062
-0.072870173 0.0056053977 0.35466632
-0.071700521 0.0055936575 0.3539235
-0.070526548 0.0055812378 0.35313767
-0.069356397 0.0055687618 0.3523483
-0.0682071 0.0055576153 0.35164303
-0.067076065 0.0055476446 0.35101214
-0.065957218 0.0055383923 0.35042673
-0.064864278 0.0055310624 0.34996295
-0.06378071 0.0055243135 0.34953594
-0.062718101 0.0055191927 0.34921193
-0.061669573 0.0055151652 0.34895709
-0.060625594 0.0055114175 0.34871998
-0.059587378 0.0055080773 0.34850863
-0.058556985 0.0055053574 0.34833655
-0.057533257 0.0055031809 0.34819883
-0.056509733 0.0055009471 0.34805751
-0.055496536 0.0054996568 0.34797585
-0.05449298 0.0054992917 0.34795275
-0.053493094 0.0054992898 0.34795263
-0.052492552 0.0054992195 0.34794819
-0.051509544 0.0055010193 0.34806207
-0.050519738 0.0055021499 0.34813359
-0.049524277 0.0055026975 0.34816825
-0.048533905 0.0055038449 0.34824085
-0.047554363 0.0055062948 0.34839585
-0.046585221 0.0055100797 0.34863535
-0.045617733 0.0055142315 0.34889802
-0.044633757 0.0055165319 0.34904358
-0.043660071 0.005520239 0.34927812
-0.042695936 0.0055253562 0.34960192
-0.041728079 0.005530227 0.34991011
-0.040754881 0.0055346135 0.35018763
-0.039783239 0.0055394382 0.35049292
-0.038810592 0.0055443705 0.35080498
-0.037838675 0.0055496721 0.35114044
-0.036871847 0.0055560321 0.35154283
-0.035906851 0.0055630328 0.35198581
-0.034938861 0.0055699633 0.35242429
-0.033981856 0.0055791107 0.35300308
-0.033018034 0.0055876672 0.35354447
-0.032054853 0.0055968789 0.35412732
-0.031089639 0.0056063286 0.35472521
-0.030123163 0.0056161829 0.35534874
-0.029153749 0.005626162 0.35598013
-0.028179703 0.0056359409 0.35659885
-0.027208608 0.0056470693 0.35730299
-0.026247906 0.005661313 0.35820422
-0.025289034 0.0056771305 0.35920501
-0.024329836 0.005694217 0.36028612
-0.023368167 0.0057122186 0.36142513
-0.0224103 0.0057328669 0.36273161
-0.021462057 0.0057581128 0.36432895
-0.020499835 0.0057820044 0.36584064
-0.019545147 0.0058107194 0.36765751
-0.018583728 0.0058406 0.36954811
-0.017622272 0.0058740904 0.37166712
-0.016670607 0.0059153768 0.37427941
-0.015721066 0.005963163 0.37730294
-0.014829147 0.0060415044 0.38225979
-0.085474409 0.00690166 0.36950168
-0.083593428 0.0068346825 0.36591583
-0.082009234 0.0067905737 0.36355433
-0.080517113 0.0067530484 0.36154529
-0.079125784 0.0067231059 0.35994223
-0.077811718 0.0066990219 0.35865283
-0.076535836 0.0066776229 0.35750717
-0.075303987 0.0066595362 0.35653883
-0.074081033 0.0066417479 0.35558647
-0.072885461 0.0066259508 0.35474074
-0.071703829 0.0066109914 0.35393983
-0.070532613 0.006596575 0.35316801
-0.069360711 0.0065816734 0.3523702
-0.06821239 0.0065686004 0.3516703
-0.067080416 0.0065567321 0.35103491
-0.065962777 0.0065459241 0.35045627
-0.064869806 0.006537267 0.34999278
-0.063795261 0.0065302234 0.34961566
-0.062729679 0.0065238862 0.34927639
-0.061681923 0.0065192278 0.34902698
-0.060636457 0.006514661 0.34878248
-0.059599109 0.0065108272 0.34857723
-0.058574732 0.0065083038 0.34844214
-0.057552092 0.0065058884 0.34831282
-0.056526266 0.0065030218 0.34815934
-0.055512384 0.0065014502 0.34807521
-0.054510329 0.0065012318 0.34806353
-0.053509541 0.0065011592 0.34805962
-0.052499413 0.006499927 0.34799367
-0.051507227 0.0065009119 0.34804639
-0.050522309 0.0065028714 0.3481513
-0.049533486 0.0065043974 0.34823298
-0.048547372 0.006506349 0.34833747
-0.047572479 0.0065099183 0.34852856
-0.04659627 0.0065134573 0.34871805
-0.045624018 0.0065177167 0.34894609
-0.044649616 0.0065218541 0.34916759
-0.043671917 0.0065256888 0.34937289
-0.042706642 0.0065316041 0.3496896
-0.04173886 0.0065374118 0.35000053
-0.040768962 0.0065431665 0.35030863
-0.039795823 0.0065486799 0.35060379
-0.038824823 0.0065548401 0.35093361
-0.037848618 0.0065604267 0.35123271
-0.036881484 0.0065679355 0.35163471
-0.035916559 0.0065762717 0.352081
-0.034950629 0.0065849014 0.35254303
-0.033994101 0.0065958705 0.35313028
-0.03302975 0.0066059502 0.35366994
-0.032065481 0.0066166865 0.35424474
-0.031099897 0.006627847 0.35484225
-0.030133128 0.0066395025 0.35546628
-0.029165762 0.0066518406 0.35612682
-0.028186155 0.006662182 0.35668048
-0.02722057 0.0066767437 0.35746008
-0.026269902 0.0066962494 0.35850438
-0.025302349 0.0067128679 0.3593941
-0.024335343 0.0067310529 0.36036769
-0.023381941 0.006754783 0.36163816
-0.02242451 0.0067795031 0.36296162
-0.021471884 0.0068081585 0.36449578
-0.020517858 0.0068392861 0.3661623
-0.019565273 0.0068742852 0.36803609
-0.018598281 0.0069079329 0.36983752
-0.017632682 0.006946208 0.3718867
-0.016678592 0.0069942484 0.37445867
-0.015733385 0.007052897 0.37759861
-0.085610799 0.0079761613 0.37009132
-0.083734497 0.0078994809 0.36653334
-0.082094774 0.0078434497 0.36393353
-0.08060123 0.0078001185 0.36192298
-0.079189397 0.0077636666 0.36023161
-0.077841297 0.0077325795 0.35878918
-0.076547481 0.0077061225 0.35756159
-0.0753249 0.0076862141 0.35663784
-0.074106254 0.0076661641 0.35570753
-0.072903797 0.0076472517 0.35483
-0.071725734 0.0076303971 0.35404795
-0.07056503 0.0076149311 0.35333034
-0.069388323 0.0075972616 0.35251048
-0.068221547 0.0075801723 0.35171753
-0.067092128 0.0075667817 0.35109621
-0.065974489 0.0075543309 0.35051849
-0.064887479 0.0075450558 0.35008815
-0.063813858 0.0075370697 0.34971759
-0.062746666 0.0075295996 0.34937099
-0.061696924 0.0075240149 0.34911186
-0.060657192 0.0075194868 0.34890175
-0.059615705 0.0075145848 0.3486743
-0.05859635 0.0075123529 0.34857073
-0.057575434 0.0075098397 0.34845412
-0.056552481 0.0075069666 0.34832081
-0.055536851 0.0075049801 0.34822863
-0.054519236 0.0075026471 0.34812039
-0.053525493 0.0075035738 0.3481634
-0.052519754 0.0075028217 0.3481285
-0.051513996 0.007502038 0.34809214
-0.050527625 0.0075041023 0.34818792
-0.049546115 0.0075069871 0.34832177
-0.048563737 0.007509856 0.34845489
-0.047588374 0.0075139538 0.34864503
-0.046611324 0.0075179557 0.3488307
-0.045630861 0.0075215702 0.34899843
-0.044666171 0.0075280061 0.34929705
-0.043697491 0.0075340504 0.34957749
-0.042719062 0.0075386581 0.34979129
-0.041751668 0.0075454824 0.35010794
-0.040784243 0.0075526377 0.35043994
-0.039810959 0.0075590434 0.35073715
-0.038840905 0.0075664097 0.35107896
-0.03786635 0.0075732702 0.35139728
-0.036896415 0.0075814547 0.35177705
-0.03593009 0.0075908639 0.35221362
-0.034966994 0.007601521 0.3527081
-0.03400423 0.0076128873 0.35323551
-0.033043709 0.0076254713 0.3538194
-0.032078814 0.0076378123 0.35439202
-0.031113857 0.0076509486 0.35500154
-0.030145338 0.0076640691 0.35561031
-0.029177533 0.0076782983 0.35627055
-0.028200921 0.0076911603 0.35686734
-0.027239397 0.0077092634 0.35770732
-0.026288031 0.0077317739 0.3587518
-0.025314355 0.0077492925 0.35956466
-0.024347099 0.0077703507 0.36054176
-0.023397669 0.0077992235 0.36188143
-0.022442097 0.0078286389 0.36324629
-0.021487758 0.0078613749 0.36476523
-0.020536155 0.0078985207 0.36648881
-0.019585084 0.0079398993 0.36840874
-0.018613188 0.0079770805 0.37013394
-0.017645357 0.0080206171 0.37215403
-0.016691523 0.008076543 0.37474898
-0.015749756 0.0081464257 0.37799153
-0.085754931 0.0090548685 0.37071437
-0.083903283 0.0089707905 0.36727217
-0.082219929 0.0089027947 0.36448833
-0.080689482 0.0088498136 0.36231926
-0.079242468 0.008804718 0.36047301
-0.077879377 0.0087678768 0.35896468
-0.076580562 0.0087373788 0.35771608
-0.075337015 0.0087124435 0.3566952
-0.074130163 0.0086911228 0.35582229
-0.072933316 0.0086703943 0.35497364
-0.071757227 0.0086515807 0.3542034
-0.070589356 0.0086332308 0.35345215
-0.069418773 0.0086140083 0.35266516
-0.068247207 0.008594092 0.35184979
-0.067110494 0.0085780332 0.35119233
-0.066002958 0.0085652694 0.35066974
-0.064912446 0.0085543534 0.35022283
-0.06383466 0.0085447971 0.34983161
-0.062767997 0.0085364468 0.34948975
-0.061712172 0.0085293241 0.34919813
-0.060681883 0.0085255541 0.34904376
-0.059644032 0.0085205762 0.34883997
-0.058618631 0.0085172374 0.34870327
-0.057598598 0.0085145757 0.34859431
-0.056583047 0.0085124942 0.34850907
-0.055561621 0.0085094376 0.34838393
-0.05454611 0.0085071912 0.34829199
-0.053535357 0.0085056173 0.34822756
-0.052535769 0.0085057905 0.34823465
-0.05153925 0.0085064778 0.34826279
-0.050550546 0.0085085072 0.34834588
-0.049567722 0.008511629 0.34847367
-0.048586294 0.0085151242 0.34861675
-0.047604125 0.0085186334 0.34876043
-0.046628624 0.0085235117 0.34896016
-0.045655396 0.0085290307 0.34918609
-0.04468628 0.0085355816 0.34945431
-0.043714821 0.008541977 0.34971613
-0.042740274 0.0085480548 0.34996498
-0.041771945 0.0085557001 0.35027796
-0.040799849 0.0085629309 0.35057402
-0.03982712 0.0085703926 0.35087952
-0.038856886 0.0085787931 0.35122344
-0.03788371 0.0085869748 0.35155839
-0.036913324 0.0085962536 0.35193828
-0.035947233 0.0086070839 0.35238168
-0.034983948 0.008619233 0.35287908
-0.034023598 0.0086328527 0.35343668
-0.033058949 0.0086461874 0.3539826
-0.032093894 0.0086602578 0.35455865
-0.031129405 0.0086754076 0.35517892
-0.030157592 0.0086894762 0.35575488
-0.029192727 0.0087066032 0.35645607
-0.02821699 0.0087216152 0.35707068
-0.02725455 0.0087420261 0.35790631
-0.026301311 0.0087671038 0.35893303
-0.025330026 0.0087879682 0.35978723
-0.024363073 0.0088121751 0.3607783
-0.023421785 0.0088482304 0.36225441
-0.02246264 0.0088805789 0.3635788
-0.021509349 0.0089185107 0.36513177
-0.020553164 0.0089590717 0.36679238
-0.019592417 0.0090019209 0.36854666
-0.018626073 0.0090469494 0.37039018
-0.017660506 0.0090978369 0.37247354
-0.016708814 0.0091628972 0.37513718
-0.015775191 0.0092475256 0.37860194
-0.085938722 0.010141836 0.3715089
-0.084043577 0.010042943 0.3678863
-0.082366571 0.0099679288 0.36513841
-0.080779456 0.0099019986 0.36272329
-0.079337597 0.0098523814 0.36090577
-0.077950962 0.0098083997 0.35929465
-0.076638669 0.0097727161 0.35798752
-0.075378254 0.0097427676 0.35689047
-0.074153565 0.0097166738 0.35593462
-0.072960928 0.0096941097 0.35510805
-0.071784295 0.0096730608 0.35433701
-0.070612893 0.0096521229 0.35357001
-0.069447212 0.0096313646 0.35280964
-0.068284556 0.0096104192 0.35204238
-0.067149282 0.0095927538 0.35139528
-0.066037282 0.0095779272 0.35085213
-0.06494797 0.0095659802 0.35041451
-0.063865975 0.0095547521 0.35000321
-0.062798366 0.0095453523 0.34965888
-0.061742555 0.0095374677 0.34937006
-0.060704689 0.0095321415 0.34917495
-0.059674542 0.0095278686 0.34901842
-0.058645204 0.0095235799 0.34886134
-0.057624605 0.0095205866 0.34875169
-0.056609247 0.0095183691 0.34867045
-0.05558569 0.0095146671 0.34853485
-0.054573182 0.009512756 0.34846485
-0.053563431 0.0095112631 0.34841016
-0.052560117 0.0095108785 0.34839606
-0.05156498 0.0095119867 0.34843665
-0.050576258 0.0095143458 0.34852308
-0.049593266 0.0095178997 0.34865326
-0.048618637 0.0095232381 0.34884882
-0.047627971 0.0095255943 0.34893513
-0.046647515 0.0095301373 0.34910154
-0.045676731 0.0095368996 0.34934926
-0.044707071 0.0095442059 0.34961689
-0.043734267 0.0095511619 0.3498717
-0.04276292 0.0095587708 0.35015041
-0.041793197 0.0095671173 0.35045618
-0.040819649 0.0095749795 0.35074416
-0.039846435 0.0095833205 0.35104969
-0.038873129 0.0095920712 0.35137025
-0.037899926 0.0096013146 0.35170886
-0.036932524 0.0096125742 0.35212132
-0.035965487 0.0096245678 0.35256064
-0.035001311 0.0096380431 0.35305426
-0.034038633 0.0096527468 0.35359287
-0.033073965 0.0096677747 0.35414338
-0.032113343 0.0096849762 0.35477349
-0.031144299 0.0097006829 0.35534886
-0.030174782 0.0097173024 0.35595766
-0.029206757 0.0097355852 0.35662737
-0.028230894 0.0097524906 0.35724664
-0.027267955 0.0097753052 0.35808235
-0.026312497 0.0098026944 0.35908568
-0.02535193 0.0098303398 0.36009836
-0.024389803 0.0098597081 0.36117414
-0.023440065 0.0098969163 0.36253715
-0.022487668 0.0099364119 0.3639839
-0.021525312 0.0099751446 0.36540276
-0.020565419 0.01001905 0.36701107
