# .PCD v0.7 - Point Cloud Data file format
VERSION 0.7
FIELDS x y z
SIZE 4 4 4
TYPE F F F
COUNT 1 1 1
WIDTH 1334
HEIGHT 1
VIEWPOINT 0 0 0 1 0 0 0
POINTS 1334
DATA ascii
-0.016229771 0.040854249 0.38951176
-0.015113379 0.040862098 0.3895866
-0.013997488 0.040872663 0.38968733
-0.012882874 0.040889125 0.38984427
-0.011767773 0.040907018 0.39001489
-0.01065034 0.040919729 0.39013606
-0.0095205754 0.040882472 0.38978085
-0.0083789751 0.04077768 0.38878173
-0.0072472985 0.040696368 0.38800651
-0.006135019 0.040714219 0.38817668
-0.051520284 0.041548617 0.38556847
-0.050452072 0.041581377 0.38587248
-0.049611244 0.041807227 0.38796836
-0.04855584 0.041858483 0.38844401
-0.047431905 0.041851681 0.38838089
-0.046309985 0.041846372 0.38833162
-0.045191292 0.041843791 0.38830766
-0.044071455 0.041839987 0.38827237
-0.04296888 0.041852806 0.38839132
-0.041879613 0.041879613 0.38864008
-0.040801089 0.041918926 0.38900492
-0.039713036 0.041950393 0.38929692
-0.038604729 0.041961662 0.3894015
-0.037496716 0.041973937 0.3895154
-0.03637651 0.041972894 0.38950574
-0.035253678 0.041968666 0.38946649
-0.034134693 0.041968886 0.38946855
-0.033016346 0.041969933 0.38947824
-0.031899087 0.041972484 0.38950193
-0.030781722 0.041975077 0.38952598
-0.029666672 0.041981138 0.38958225
-0.028548647 0.041983303 0.38960233
-0.027432254 0.041988142 0.38964725
-0.026317028 0.041995257 0.38971326
-0.025200624 0.042001039 0.38976693
-0.024086893 0.042012021 0.38986883
-0.022974195 0.042025965 0.38999823
-0.021859411 0.042037331 0.3901037
-0.020744171 0.042048994 0.39021194
-0.019627728 0.042059414 0.39030865
-0.018510254 0.042068757 0.39039534
-0.017391954 0.042077307 0.39047468
-0.016261797 0.042056371 0.3902804
-0.015127441 0.042020667 0.38994908
-0.013997616 0.041992847 0.38969091
-0.012874602 0.041982397 0.38959393
-0.011759761 0.041999146 0.38974935
-0.010644038 0.04201594 0.38990521
-0.0095292004 0.04204059 0.39013395
-0.0084123444 0.04206172 0.39033005
-0.0072798938 0.041999385 0.38975158
-0.0061443392 0.041893221 0.38876638
-0.0050168848 0.041807372 0.3879697
-0.003994931 0.042802833 0.39720753
-0.053777035 0.042688988 0.3858614
-0.052639723 0.04266588 0.38565254
-0.051709481 0.042813227 0.38698438
-0.05077929 0.042967092 0.38837516
-0.049662273 0.042966235 0.38836741
-0.0485355 0.042956706 0.38828129
-0.04740971 0.04294762 0.38819915
-0.046289489 0.042943262 0.38815975
-0.04519704 0.042965088 0.38835704
-0.044123691 0.043006636 0.38873258
-0.043039691 0.043039691 0.38903138
-0.041959058 0.043077964 0.38937733
-0.040843509 0.043081511 0.38940936
-0.039715134 0.043071341 0.38931745
-0.038592122 0.043066572 0.38927436
-0.037472524 0.04306544 0.38926411
-0.036349893 0.043060642 0.38922074
-0.035226237 0.04305429 0.38916332
-0.034105789 0.043051571 0.38913876
-0.032993037 0.043058708 0.38920328
-0.031884447 0.04307197 0.38932315
-0.03077261 0.043081656 0.38941067
-0.029655114 0.043083843 0.38943046
-0.028539205 0.043088604 0.3894735
-0.027419381 0.043087598 0.38946441
-0.026306236 0.043097451 0.38955346
-0.025192287 0.043106802 0.38963798
-0.024073852 0.043108992 0.38965777
-0.022957698 0.043115679 0.3897182
-0.021840902 0.043121781 0.38977337
-0.020725597 0.043131649 0.38986257
-0.019613063 0.043148737 0.39001703
-0.018498981 0.04316429 0.39015761
-0.017383367 0.043178041 0.39028192
-0.016271031 0.043202393 0.39050201
-0.015153013 0.04321415 0.39060828
-0.01402959 0.04321114 0.39058107
-0.012896482 0.043175176 0.39025602
-0.011761363 0.043124996 0.38980243
-0.010639704 0.043118801 0.38974643
-0.0095232325 0.043134641 0.38988963
-0.0084061474 0.043151557 0.39004251
-0.0072883214 0.04316929 0.39020279
-0.0061700656 0.043190461 0.39039415
-0.0050364276 0.043089435 0.38948101
-0.0039013298 0.042914629 0.38790095
-0.0027920275 0.042997226 0.38864753
-0.054835636 0.043757729 0.38550845
-0.053750787 0.043776412 0.38567305
-0.052875347 0.043970026 0.38737878
-0.051885571 0.044074841 0.38830221
-0.050760791 0.044067059 0.38823366
-0.049642023 0.044064268 0.38820907
-0.04851526 0.044054087 0.38811937
-0.047408342 0.044061869 0.38818794
-0.046333369 0.044100434 0.38852769
-0.04527178 0.044153959 0.38899925
-0.044184044 0.044184044 0.38926432
-0.043065608 0.044184193 0.38926563
-0.041931607 0.044167962 0.38912261
-0.040803041 0.044156715 0.38902354
-0.039683085 0.04415442 0.38900331
-0.038560748 0.044149265 0.38895789
-0.037443221 0.044149466 0.38895968
-0.036340233 0.044167358 0.3891173
-0.03523377 0.044182029 0.38924655
-0.034126703 0.044196878 0.38937736
-0.033021111 0.044214711 0.38953447
-0.031915717 0.044234063 0.38970497
-0.030802967 0.044244263 0.38979483
-0.029688148 0.044252142 0.38986427
-0.028573092 0.044260278 0.38993594
-0.027454112 0.044262752 0.38995773
-0.026338231 0.044270646 0.39002725
-0.02521647 0.044268914 0.390012
-0.024093065 0.044264004 0.38996875
-0.022969265 0.044257849 0.38991454
-0.021846209 0.044252578 0.38986808
-0.020724747 0.044250134 0.38984656
-0.019607553 0.044257049 0.38990748
-0.018489704 0.044263229 0.38996193
-0.017370174 0.04426593 0.38998571
-0.016254604 0.04427978 0.39010775
-0.015142385 0.044305496 0.39033431
-0.014027261 0.044326145 0.39051622
-0.012911971 0.044349812 0.39072472
-0.011787614 0.044343881 0.39067248
-0.010655215 0.044303261 0.39031461
-0.0095217358 0.044248067 0.38982835
-0.0084023606 0.044252433 0.3898668
-0.0072850278 0.044270553 0.39002645
-0.0061669447 0.044289876 0.39019668
-0.0050487132 0.044316482 0.39043108
-0.0039217533 0.04425979 0.38993162
-0.0027909884 0.044097617 0.38850287
-0.0016772004 0.044166278 0.38910779
-0.055919684 0.044846479 0.38534483
-0.054860532 0.044885892 0.38568348
-0.054060318 0.045143154 0.387894
-0.052996781 0.045186728 0.38826844
-0.051867887 0.045175254 0.38816985
-0.050747618 0.045170959 0.38813293
-0.049627323 0.04516644 0.3880941
-0.048546996 0.045198929 0.38837326
-0.047490932 0.045256067 0.38886422
-0.046406582 0.04528835 0.38914162
-0.045290668 0.045290668 0.38916153
-0.044158544 0.045276482 0.38903964
-0.043031335 0.045266729 0.38895583
-0.041902244 0.04525442 0.38885009
-0.040786278 0.045256007 0.38886371
-0.039681494 0.045270439 0.38898772
-0.03858842 0.045299448 0.38923699
-0.037489198 0.045322765 0.38943732
-0.036387794 0.045344789 0.38962656
-0.035281073 0.045361381 0.38976914
-0.034168385 0.045371134 0.38985294
-0.033054363 0.045379721 0.38992673
-0.031940199 0.045388706 0.39000392
-0.030821601 0.045391813 0.39003062
-0.029702181 0.045393899 0.39004856
-0.02858544 0.045400403 0.39010444
-0.027472991 0.045414537 0.39022589
-0.026350075 0.045411833 0.39020264
-0.025229342 0.045412816 0.39021111
-0.0241127 0.045421597 0.39028654
-0.022997504 0.045434091 0.39039391
-0.02187269 0.045427892 0.39034066
-0.020752866 0.045431949 0.39037549
-0.019629195 0.045427565 0.39033782
-0.018499587 0.045408074 0.39017037
-0.01737179 0.045390811 0.39002201
-0.016250862 0.045390338 0.39001796
-0.015133475 0.045400426 0.39010462
-0.014014739 0.045407753 0.39016759
-0.012900225 0.045431226 0.3903693
-0.011784991 0.045456395 0.39058554
-0.010669411 0.045485381 0.39083463
-0.0095403418 0.045456924 0.3905901
-0.008412715 0.04542866 0.39034724
-0.0072839935 0.045384884 0.38997108
-0.0061643617 0.045392118 0.39003325
-0.0050458321 0.045412488 0.39020827
-0.0039273673 0.045445248 0.39048979
-0.002805098 0.045442585 0.3904669
-0.0016767764 0.045272965 0.38900942
-0.00055801537 0.045199241 0.38837597
-0.057034329 0.045959704 0.38539433
-0.056015261 0.046032343 0.38600346
-0.055200964 0.046279594 0.38807678
-0.054103132 0.046294432 0.38820121
-0.052972097 0.046280883 0.3880876
-0.051847752 0.046272725 0.38801917
-0.050747626 0.046286292 0.38813296
-0.049686663 0.046337001 0.38855815
-0.048635058 0.046398964 0.38907775
-0.047517698 0.046399634 0.38908339
-0.046386477 0.046386477 0.38897303
-0.045255251 0.046372663 0.38885722
-0.044126835 0.046361107 0.3887603
-0.043013133 0.046364807 0.38879132
-0.041922666 0.046394419 0.38903964
-0.040828358 0.046421282 0.38926491
-0.039733689 0.046449244 0.38949937
-0.038634565 0.046473466 0.38970247
-0.037527714 0.046489555 0.38983741
-0.036404405 0.046485625 0.38980445
-0.035282876 0.046483789 0.38978904
-0.034162052 0.04648279 0.38978067
-0.033041988 0.046482798 0.38978073
-0.031921491 0.046482172 0.38977548
-0.030804643 0.046487007 0.38981605
-0.029686006 0.046489403 0.38983613
-0.028567271 0.046491835 0.38985652
-0.027451664 0.046499755 0.38992295
-0.026336752 0.046509583 0.39000535
-0.025221022 0.046518773 0.39008242
-0.024105607 0.046529427 0.39017174
-0.022990864 0.046542481 0.3902812
-0.021874323 0.046553046 0.3903698
-0.020756131 0.046561051 0.39043692
-0.019637486 0.046568897 0.39050272
-0.018518597 0.046577077 0.39057133
-0.017397085 0.046579294 0.39058989
-0.016270546 0.046567425 0.39049038
-0.01514342 0.046551995 0.39036098
-0.014013694 0.046525463 0.39013851
-0.012894509 0.046532363 0.39019635
-0.011776659 0.046545841 0.39030939
-0.010660717 0.046570498 0.39051616
-0.0095441453 0.046597883 0.39074579
-0.0084231738 0.046608228 0.39083254
-0.0072959024 0.046581533 0.39060867
-0.006165429 0.046520963 0.39010078
-0.0050428174 0.046505984 0.38997516
-0.0039244639 0.046532925 0.39020109
-0.002804636 0.046556961 0.39040262
-0.0016818081 0.046530027 0.39017677
-0.00055847515 0.046353437 0.38869599
0.0005579883 0.046313029 0.38835713
-0.058126129 0.047054484 0.3852905
-0.057120841 0.047138557 0.38597891
-0.056313187 0.047392286 0.38805649
-0.055204459 0.04739777 0.38810137
-0.054078981 0.047388796 0.38802791
-0.052951444 0.047377609 0.38793629
-0.051874477 0.047412157 0.38821918
-0.050829813 0.047478396 0.38876158
-0.04974816 0.047512289 0.38903907
-0.048619475 0.047501788 0.38895309
-0.047485333 0.047485333 0.38881835
-0.046349168 0.047466017 0.38866019
-0.045236316 0.047470208 0.38869452
-0.044145662 0.047498498 0.38892615
-0.043060947 0.047534812 0.38922352
-0.041971676 0.0475679 0.38949445
-0.040870365 0.047588784 0.38966542
-0.039748803 0.047586594 0.38964751
-0.038624965 0.047581479 0.38960561
-0.037501864 0.04757699 0.38956887
-0.036376271 0.047568969 0.38950318
-0.035259776 0.047572713 0.38953385
-0.034143846 0.047577489 0.38957295
-0.033029187 0.047584422 0.38962972
-0.03191131 0.047587041 0.38965115
-0.03079336 0.047589734 0.38967323
-0.02967881 0.047598094 0.38974166
-0.028562304 0.047603838 0.38978872
-0.027446683 0.04761159 0.3898522
-0.026333744 0.047624856 0.3899608
-0.025213154 0.047624849 0.38996074
-0.024095815 0.04763126 0.39001325
-0.022978833 0.047639042 0.39007697
-0.021861345 0.047646519 0.39013818
-0.020746324 0.047660474 0.39025244
-0.019627668 0.047667194 0.39030749
-0.018514235 0.047688179 0.3904793
-0.017396929 0.047701254 0.39058638
-0.016276689 0.047707539 0.39063781
-0.015159309 0.047723748 0.39077055
-0.01402989 0.047701627 0.39058942
-0.012901426 0.047679186 0.39040565
-0.011774359 0.047658123 0.39023319
-0.010654313 0.047664028 0.39028156
-0.0095360531 0.047680266 0.39041451
-0.0084196692 0.047711458 0.39066991
-0.0073014772 0.04774043 0.39090714
-0.0061759991 0.047723629 0.39076957
-0.0050474424 0.04767029 0.39033282
-0.0039217598 0.047621369 0.38993225
-0.002802907 0.047649421 0.39016193
-0.0016827798 0.047678757 0.39040217
-0.00056068943 0.047658604 0.39023712
0.00055948581 0.047556296 0.38939941
0.0016749249 0.047456205 0.38857985
-0.059214186 0.048146114 0.38516623
-0.058232848 0.048250075 0.38599789
-0.057434 0.048512213 0.38809499
-0.056313187 0.0485074 0.38805649
-0.055185474 0.048496325 0.38796788
-0.054067813 0.04849381 0.38794777
-0.052992057 0.048529569 0.38823384
-0.05195697 0.048604906 0.38883653
-0.050856385 0.048620939 0.3889648
-0.049722854 0.048605487 0.38884118
-0.048585493 0.048585493 0.38868123
-0.047458317 0.048574984 0.38859716
-0.046361834 0.04859614 0.38876641
-0.045284845 0.048639275 0.38911149
-0.044198968 0.048674811 0.38939577
-0.043097381 0.048694443 0.38955283
-0.041978002 0.04869448 0.38955313
-0.040850446 0.048684776 0.38947549
-0.039725486 0.048677705 0.38941893
-0.038600683 0.048670426 0.3893607
-0.037484214 0.048673529 0.38938552
-0.036368199 0.048677433 0.38941675
-0.035262391 0.048695683 0.38956276
-0.034153819 0.048711184 0.38968676
-0.03304588 0.048728671 0.38982666
-0.031932443 0.04873899 0.38990921
-0.030819178 0.048750333 0.38999996
-0.029704828 0.048760753 0.39008331
-0.028586179 0.048764657 0.39011455
-0.027468877 0.04877127 0.39016744
-0.026348893 0.048773479 0.39018512
-0.025229141 0.048776336 0.39020798
-0.024109134 0.048778944 0.39022884
-0.02298676 0.048776783 0.39021155
-0.021864429 0.048774492 0.39019322
-0.020741733 0.048771098 0.39016607
-0.019625083 0.048782352 0.39025608
-0.018503165 0.048781075 0.39024585
-0.017389057 0.048801549 0.39040965
-0.016270403 0.048811208 0.39048693
-0.015154194 0.048830181 0.39063871
-0.014036099 0.048845626 0.39076227
-0.012916577 0.048858359 0.39086413
-0.011786343 0.048829135 0.39063033
-0.010658062 0.048802707 0.39041892
-0.0095342305 0.048792828 0.39033988
-0.0084140943 0.048801746 0.39041123
-0.0072965687 0.048830885 0.39064434
-0.0061783213 0.048864905 0.3909165
-0.0050566336 0.048880793 0.3910436
-0.0039274213 0.04881224 0.39049518
-0.0028026609 0.0487663 0.39012769
-0.001682113 0.048781279 0.39024749
-0.00056098384 0.048805598 0.39044204
0.00056118297 0.048822921 0.39058062
0.0016771033 0.048635997 0.38908526
0.0027907456 0.048558973 0.38846907
-0.060318895 0.049251206 0.38515282
-0.05928392 0.049310926 0.38561982
-0.058541521 0.049620908 0.38804394
-0.057427634 0.049621936 0.38805199
-0.056295007 0.049606491 0.3879312
-0.055168733 0.049596135 0.3878502
-0.054109029 0.04964643 0.38824353
-0.053070474 0.049718656 0.38880834
-0.05197015 0.049734876 0.38893518
-0.050831828 0.049714647 0.38877699
-0.049692698 0.049692698 0.38860536
-0.048574969 0.049691636 0.38859704
-0.047495425 0.049730502 0.388901
-0.046414725 0.049770009 0.38920993
-0.045318458 0.049794357 0.38940033
-0.044202782 0.049798071 0.38942939
-0.043074563 0.04978748 0.38934657
-0.041947771 0.049778022 0.3892726
-0.040823132 0.049770668 0.38921508
-0.039710846 0.049778383 0.38927543
-0.038609479 0.049800634 0.38944942
-0.037507467 0.049823355 0.3896271
-0.036404077 0.049845584 0.38980094
-0.035295006 0.049861196 0.38992304
-0.034183893 0.049874857 0.39002988
-0.033068173 0.049882498 0.3900896
-0.031953171 0.049891792 0.39016229
-0.030836744 0.049899459 0.39022225
-0.029719066 0.049905602 0.39027029
-0.028602697 0.049914513 0.39033997
-0.027484782 0.049921338 0.39039335
-0.026363675 0.049922701 0.39040402
-0.025244078 0.049927175 0.390439
-0.024128431 0.049940243 0.3905412
-0.023004103 0.049935736 0.39050594
-0.02188243 0.049936827 0.39051449
-0.020759411 0.049934801 0.39049864
-0.019633828 0.04992602 0.39042997
-0.018509518 0.049919609 0.39037985
-0.017385544 0.049913339 0.39033079
-0.016265398 0.049917944 0.39036682
-0.015145556 0.04992424 0.39041606
-0.014030791 0.049949616 0.39061448
-0.012913925 0.049971271 0.39078385
-0.011794724 0.049987163 0.39090812
-0.010670355 0.049982186 0.3908692
-0.0095419278 0.049954798 0.39065501
-0.0084141921 0.049924206 0.39041579
-0.0072935638 0.04993286 0.39048347
-0.0061737546 0.049951289 0.39062756
-0.0050547393 0.049985755 0.3908971
-0.0039333841 0.050010171 0.39108804
-0.0028062973 0.04995209 0.39063385
-0.0016818465 0.04989478 0.39018565
-0.00056074082 0.049905933 0.39027289
0.00056108506 0.04993657 0.39051247
0.0016834238 0.049941573 0.3905516
0.0027934855 0.049724042 0.38885048
0.0039065392 0.049668852 0.38841888
-0.061447524 0.050375897 0.38528988
-0.060372014 0.050402325 0.385492
-0.059649024 0.050729543 0.38799468
-0.058538053 0.050732981 0.38802096
-0.05740143 0.050713882 0.3878749
-0.056279752 0.0507075 0.38782609
-0.055212036 0.050750457 0.38815463
-0.054183114 0.050831579 0.38877508
-0.05307677 0.050841961 0.38885447
-0.051936451 0.050819539 0.38868299
-0.050793499 0.050793499 0.38848382
-0.049695037 0.050811782 0.38862365
-0.048621219 0.050856676 0.38896704
-0.047543067 0.050899051 0.38929111
-0.046432067 0.050907448 0.38935533
-0.045305032 0.050898246 0.38928497
-0.044178195 0.050888807 0.38921276
-0.04305226 0.050879944 0.38914499
-0.041940227 0.050887477 0.38920259
-0.040844265 0.050915454 0.38941658
-0.039745282 0.050941136 0.389613
-0.038643226 0.050964255 0.38978982
-0.037532613 0.050977129 0.38988829
-0.036419503 0.050987307 0.38996613
-0.035305493 0.050996821 0.39003891
-0.034188714 0.051002834 0.39008489
-0.033072915 0.051010765 0.39014554
-0.031955898 0.05101731 0.39019561
-0.030838214 0.051023226 0.39024085
-0.029719867 0.051028453 0.39028081
-0.028602663 0.051036123 0.39033949
-0.027484199 0.051042087 0.39038509
-0.026365424 0.051047947 0.39042991
-0.025247073 0.051055189 0.39048532
-0.024128238 0.051062085 0.39053804
-0.02300841 0.051067445 0.39057904
-0.021886664 0.051068883 0.39059004
-0.02076734 0.051076431 0.39064777
-0.019647626 0.051083826 0.39070433
-0.018522026 0.051075887 0.39064363
-0.017398916 0.051074237 0.39063099
-0.016272103 0.05106074 0.39052776
-0.01514706 0.051051203 0.39045483
-0.014025862 0.051054139 0.39047727
-0.012906658 0.051065475 0.39056396
-0.011789078 0.051086005 0.39072099
-0.010672011 0.051113319 0.39092991
-0.0095490189 0.051115338 0.39094535
-0.0084222239 0.051094823 0.39078844
-0.0072931787 0.05105225 0.39046285
-0.0061718905 0.051058367 0.39050961
-0.0050515588 0.05107687 0.39065114
-0.0039319112 0.051114846 0.39094159
-0.0028103392 0.051148172 0.39119649
-0.0016842303 0.051088318 0.3907387
-0.00056061061 0.051015567 0.39018226
0.00056096003 0.051047366 0.39042547
0.0016839264 0.051079102 0.39066821
0.002807061 0.051088508 0.39074016
0.0039081555 0.050806023 0.38857961
0.0050225812 0.050783876 0.38841024
-0.061444983 0.051480934 0.38527396
-0.060699623 0.051789589 0.38758388
-0.059656058 0.051850591 0.38804042
-0.058519084 0.05183119 0.38789523
-0.057391495 0.051819507 0.38780779
-0.056332629 0.051870637 0.38819045
-0.055300221 0.051948693 0.3887746
-0.054186635 0.051952135 0.38880035
-0.053044636 0.051927906 0.38861904
-0.051911041 0.051911041 0.38849282
-0.050808866 0.051925544 0.38860136
-0.049746145 0.051981926 0.3890233
-0.048662901 0.052018963 0.3893005
-0.047546018 0.052020937 0.38931525
-0.04641157 0.052003328 0.38918346
-0.045283135 0.051991746 0.3890968
-0.044166688 0.051993698 0.3891114
-0.043067571 0.052016675 0.38928336
-0.04197425 0.052048068 0.38951832
-0.040872868 0.052070912 0.38968927
-0.039769281 0.052092157 0.38984826
-0.038656872 0.052102737 0.38992745
-0.037538204 0.052105267 0.38994637
-0.036420375 0.052109148 0.38997543
-0.035306972 0.052119814 0.39005524
-0.03418747 0.052121881 0.39007071
-0.033070691 0.052128375 0.39011931
-0.031956442 0.052139457 0.39020225
-0.030837486 0.052143384 0.39023164
-0.029718626 0.052147776 0.39026451
-0.028601678 0.052156001 0.39032605
-0.027484439 0.052164342 0.39038849
-0.026364224 0.052167505 0.39041215
-0.025244873 0.052172739 0.39045131
-0.02412628 0.052180093 0.39050636
-0.023006868 0.05218631 0.39055288
-0.021887453 0.052193157 0.39060414
-0.020768628 0.052202228 0.390672
-0.019649355 0.052211143 0.39073873
-0.018529361 0.052219108 0.39079833
-0.017406322 0.052218962 0.39079726
-0.016283274 0.052218772 0.39079583
-0.015156447 0.05220554 0.39069679
-0.014031766 0.052198168 0.39064163
-0.012906918 0.052188843 0.39057183
-0.011785526 0.052193042 0.39060327
-0.010666495 0.052209686 0.39072782
-0.00954876 0.052237336 0.39093474
-0.0084284842 0.052256599 0.39107892
-0.0073018554 0.052236352 0.39092737
-0.0061730621 0.052190434 0.39058375
-0.0050506121 0.052189659 0.39057794
-0.0039295782 0.052207254 0.39070961
-0.0028091716 0.05225059 0.39103395
-0.0016862422 0.052273508 0.39120546
-0.00056134228 0.052204836 0.39069152
0.00056075997 0.052150678 0.39028621
0.0016830005 0.052173015 0.39045337
0.0028069164 0.052208647 0.39072004
0.003924123 0.052134778 0.39016724
0.0050239428 0.051914077 0.38851553
0.0061478699 0.051977444 0.38898978
-0.062509634 0.05255235 0.38501242
-0.061694972 0.052802004 0.38684145
-0.06075719 0.052953515 0.38795146
-0.059629589 0.052942157 0.38786826
-0.05849915 0.052927803 0.38776308
-0.057423983 0.052963868 0.38802731
-0.056398433 0.053048033 0.38864392
-0.055306811 0.053072192 0.38882092
-0.054160431 0.053043719 0.38861233
-0.053015362 0.053015362 0.38840458
-0.051922735 0.05303935 0.38858032
-0.050862253 0.053097956 0.38900968
-0.049779117 0.053135011 0.38928115
-0.048655044 0.053129073 0.38923764
-0.047520574 0.053111229 0.38910693
-0.046389226 0.053096101 0.38899609
-0.045290262 0.053118207 0.38915804
-0.044196382 0.053147547 0.389373
-0.043097194 0.053171862 0.38955113
-0.041997384 0.053196684 0.38973299
-0.040885538 0.053207207 0.38981009
-0.039771855 0.053215865 0.3898735
-0.038654063 0.053219363 0.38989913
-0.037537284 0.053224508 0.38993683
-0.036423054 0.053233694 0.39000413
-0.03530902 0.053243764 0.39007789
-0.034190349 0.053247266 0.39010355
-0.033073034 0.053253192 0.39014697
-0.031957079 0.053261798 0.39021003
-0.030838842 0.053267092 0.39024881
-0.029720996 0.05327348 0.39029562
-0.028602982 0.053280063 0.39034384
-0.027485197 0.053287625 0.39039925
-0.026366061 0.053293101 0.39043936
-0.025247222 0.053299692 0.39048764
-0.024128728 0.053307652 0.39054596
-0.023008132 0.053311523 0.39057434
-0.021888258 0.053317554 0.3906185
-0.02076878 0.053325247 0.39067486
-0.019647529 0.05332901 0.39070243
-0.018527221 0.053335939 0.39075321
-0.017406819 0.053343479 0.39080843
-0.016286392 0.053351976 0.39087069
-0.015163847 0.053354278 0.39088756
-0.014039762 0.053351097 0.39086425
-0.012913774 0.0533395 0.39077929
-0.011788236 0.053327736 0.3906931
-0.010664778 0.053323891 0.39066494
-0.009544244 0.05333548 0.39074984
-0.0084254481 0.05336117 0.39093804
-0.0073044049 0.053378344 0.39106387
-0.0061797188 0.053370297 0.39100492
-0.005051136 0.053317551 0.39061847
-0.0039278883 0.053307053 0.39054158
-0.0028073578 0.053339802 0.39078149
-0.0016857822 0.053383105 0.39109874
-0.0005621711 0.053406253 0.39126834
0.00056126015 0.053319715 0.39063433
0.0016822981 0.053272773 0.39029044
0.0028057594 0.053309429 0.39055899
0.0039296923 0.053331539 0.39072096
0.0050395834 0.053195603 0.38972506
0.0061401557 0.053028617 0.38850167
-0.063606121 0.053650383 0.38495263
-0.062587798 0.053725805 0.38549381
-0.061853312 0.054051995 0.38783428
-0.060740333 0.054053325 0.38784382
-0.059616558 0.054044917 0.3877835
-0.058523081 0.054064181 0.38792172
-0.057502642 0.054152973 0.38855883
-0.056422003 0.054187469 0.38880634
-0.055273179 0.054156549 0.38858449
-0.054133471 0.054133471 0.38841888
-0.053031977 0.054148439 0.38852629
-0.051979452 0.054215129 0.3890048
-0.050889816 0.054245185 0.38922048
-0.049766216 0.054239582 0.38918027
-0.048635114 0.054225359 0.3890782
-0.047508821 0.054215949 0.3890107
-0.046408504 0.054236442 0.38915774
-0.04532019 0.054272328 0.3894152
-0.044226773 0.054303758 0.38964075
-0.043117352 0.054316666 0.38973334
-0.04200149 0.054321926 0.3897711
-0.040884152 0.054325517 0.38979685
-0.039769217 0.054332592 0.38984764
-0.038654331 0.05434015 0.38990185
-0.037540011 0.054348972 0.38996515
-0.036425136 0.05435751 0.39002642
-0.035309684 0.054365702 0.39008519
-0.03419251 0.0543717 0.39012823
-0.033075199 0.054377865 0.39017248
-0.031958308 0.054385193 0.39022505
-0.030841334 0.054392897 0.39028034
-0.029723655 0.054399896 0.39033055
-0.02860501 0.054405607 0.39037153
-0.027487146 0.05441333 0.39042693
-0.02636819 0.054419454 0.39047089
-0.025249472 0.05442664 0.39052245
-0.024129771 0.054432273 0.39056286
-0.023008799 0.054435451 0.39058566
-0.021889102 0.054442126 0.39063355
-0.020768804 0.054447949 0.39067534
-0.019647757 0.054452356 0.39070696
-0.018527197 0.054458726 0.39075267
-0.017406806 0.05446646 0.39080817
-0.016285904 0.054473542 0.39085898
-0.015165253 0.054482572 0.39092377
-0.014043993 0.054490693 0.39098203
-0.012921279 0.05449409 0.39100641
-0.011794679 0.054480184 0.39090663
-0.010667528 0.054460537 0.39076567
-0.0095433528 0.05445325 0.39071336
-0.0084217712 0.054460786 0.39076746
-0.0073028831 0.054490741 0.39098239
-0.0061818375 0.054512568 0.391139
-0.0050570997 0.054504301 0.39107966
-0.0039293207 0.054449156 0.39068401
-0.0028062223 0.054440714 0.39062342
-0.0016848536 0.054476932 0.3908833
-0.00056197081 0.054511171 0.39112896
0.00056201592 0.054515544 0.39116034
0.0016831115 0.054420605 0.39047915
0.0028047597 0.054412335 0.39041981
0.003929446 0.054450892 0.39069647
0.0050559533 0.054491945 0.390991
0.0061481544 0.054215543 0.38900778
0.0072546899 0.054131147 0.38840222
-0.064800039 0.054830801 0.38547444
-0.063668922 0.054810636 0.38533267
-0.06292136 0.055125795 0.38754833
-0.061866779 0.055178478 0.38791871
-0.060722381 0.055151522 0.3877292
-0.059617613 0.055160221 0.38779035
-0.058588985 0.055241045 0.38835856
-0.05754159 0.055306967 0.38882202
-0.056389205 0.055272587 0.38858032
-0.055244289 0.055244289 0.38838139
-0.05414553 0.055261936 0.38850543
-0.053082254 0.055317298 0.38889465
-0.052004226 0.055359337 0.3891902
-0.050879974 0.055352941 0.38914523
-0.049743094 0.055332206 0.38899946
-0.0486218 0.055328257 0.38897169
-0.047532238 0.055361077 0.38920242
-0.04644677 0.055400364 0.38947862
-0.045343988 0.055420429 0.38961968
-0.044231392 0.055429213 0.38968143
-0.043117601 0.055436917 0.38973561
-0.042002752 0.055443633 0.38978282
-0.040886469 0.055448774 0.38981897
-0.039770916 0.055455223 0.3898643
-0.038656846 0.055464171 0.38992721
-0.037542563 0.055473335 0.38999164
-0.036426537 0.055480421 0.39004144
-0.035310835 0.055488452 0.39009792
-0.034195624 0.055497818 0.39016375
-0.033078674 0.055504896 0.39021352
-0.031961333 0.055511788 0.39026195
-0.03084447 0.055520047 0.39032003
-0.029727194 0.055528156 0.39037704
-0.028606946 0.055531129 0.39039794
-0.027489115 0.055539232 0.39045489
-0.02637009 0.055545509 0.39049903
-0.025250651 0.055551432 0.39054066
-0.024130024 0.055555172 0.39056697
-0.02300984 0.055560347 0.39060333
-0.021890575 0.055568382 0.39065984
-0.020770445 0.055574976 0.39070618
-0.019649334 0.055579543 0.39073831
-0.018528843 0.055586532 0.39078742
-0.017407868 0.055592868 0.39083198
-0.016286016 0.055597089 0.39086166
-0.015164307 0.055602461 0.39089942
-0.0140431 0.055610675 0.39095718
-0.012922143 0.055621397 0.39103255
-0.011799386 0.055625673 0.39106262
-0.010673907 0.055616669 0.39099932
-0.0095469002 0.055596653 0.39085859
-0.0084231207 0.055592597 0.39083007
-0.0073002595 0.055594284 0.39084193
-0.0061805672 0.055625107 0.39105862
-0.0050587808 0.055646587 0.39120963
-0.0039338358 0.055635676 0.39113292
-0.0028064896 0.055568494 0.39066061
-0.0016842254 0.055579439 0.39073756
-0.00056173891 0.055612151 0.39096755
0.00056210835 0.055648725 0.39122468
0.001685749 0.055629719 0.39109105
0.0028050754 0.055540495 0.39046377
0.003927737 0.05554942 0.39052653
0.0050541563 0.055595722 0.39085203
0.0061722938 0.055550646 0.39053515
0.0072579309 0.055271935 0.38857573
0.0083931005 0.055394463 0.38943714
-0.064734235 0.05588169 0.38508302
-0.063873053 0.056097198 0.3865681
-0.062972806 0.056285433 0.38786522
-0.061847292 0.056275465 0.38779652
-0.060706425 0.056250907 0.3876273
-0.059661694 0.056316178 0.38807708
-0.058651544 0.056417201 0.38877323
-0.057518177 0.05640132 0.3886638
-0.056366157 0.056366157 0.38842151
-0.055248898 0.056365039 0.38841379
-0.054190744 0.056425411 0.38882983
-0.053115442 0.0564701 0.38913777
-0.051993374 0.056465924 0.38910899
-0.050858367 0.0564472 0.38897997
-0.049737845 0.056444071 0.38895839
-0.048646107 0.056474216 0.38916615
-0.047564052 0.056517284 0.38946292
-0.046461571 0.056537576 0.38960275
-0.045344464 0.056540631 0.38962379
-0.044229198 0.056546193 0.38966212
-0.043116473 0.056555372 0.38972539
-0.042004168 0.056565613 0.38979596
-0.040888321 0.056571513 0.38983661
-0.039774377 0.05658045 0.38989821
-0.038660333 0.056589764 0.38996238
-0.037544958 0.05659762 0.39001653
-0.036428701 0.056604598 0.3900646
-0.03531355 0.056613788 0.39012793
-0.034197956 0.056622844 0.39019033
-0.033081222 0.056630567 0.39024356
-0.031964023 0.056638002 0.39029479
-0.030846704 0.056645766 0.39034829
-0.029728064 0.056651596 0.39038846
-0.028609149 0.056657333 0.39042801
-0.027491201 0.056665536 0.39048454
-0.026371818 0.056671355 0.39052463
-0.025252266 0.056677312 0.39056566
-0.024132797 0.056684013 0.39061186
-0.023012765 0.056689981 0.39065298
-0.021892851 0.056696869 0.39070046
-0.020772267 0.056702673 0.39074045
-0.019650811 0.056706626 0.39076769
-0.018530516 0.056714606 0.39082268
-0.017408423 0.056717768 0.39084446
-0.016287042 0.056723837 0.39088628
-0.015165009 0.056728363 0.39091748
-0.014042979 0.056733634 0.39095381
-0.012921515 0.056742303 0.39101353
-0.01179917 0.056748386 0.39105546
-0.01067616 0.05675222 0.39108187
-0.0095524564 0.056752831 0.39108607
-0.0084255533 0.056732062 0.39094296
-0.0073004402 0.056718808 0.39085162
-0.0061779176 0.056724515 0.39089096
-0.0050572273 0.05675333 0.39108953
-0.0039357506 0.05678726 0.39132333
-0.0028097352 0.056756653 0.39111242
-0.0016843003 0.056704778 0.39075494
-0.00056154461 0.05671601 0.39083233
0.00056193036 0.056754965 0.39110079
0.0016870598 0.056797676 0.39139512
0.0028081669 0.056724969 0.39089409
0.0039272578 0.05666472 0.39047891
0.0050521414 0.056696251 0.3906962
0.0061780107 0.056725372 0.39089686
0.0072786584 0.056549579 0.38968545
0.008373512 0.056381647 0.38852823
-0.065876573 0.057019219 0.38529223
-0.06481 0.057054959 0.38553372
-0.064063758 0.057378843 0.38772228
-0.06297034 0.057397742 0.38784999
-0.061826177 0.057370238 0.38766414
-0.060740143 0.057396647 0.3878426
-0.059733097 0.057500087 0.38854155
-0.058634229 0.057517387 0.38865846
-0.057486739 0.057486739 0.38845137
-0.056356117 0.05747208 0.3883523
-0.055287138 0.05752096 0.3886826
-0.054229748 0.057584167 0.3891097
-0.053110905 0.057583403 0.38910455
-0.05197376 0.05756234 0.38896221
-0.050845515 0.057550415 0.38888165
-0.049759135 0.057586417 0.3891249
-0.048675496 0.057627313 0.38940126
-0.047574542 0.057649154 0.38954884
-0.046460472 0.057655763 0.38959351
-0.045343846 0.057659462 0.38961849
-0.044229992 0.05766695 0.38966909
-0.043117963 0.057677273 0.38973886
-0.042005602 0.057687692 0.38980925
-0.040891651 0.057696439 0.38986835
-0.039777394 0.057705231 0.38992777
-0.038663525 0.057715114 0.38999456
-0.037547793 0.057722729 0.390046
-0.036432307 0.057731193 0.39010319
-0.03531646 0.057739608 0.39016005
-0.034199942 0.057747439 0.39021298
-0.033083033 0.057755128 0.39026493
-0.031966116 0.057763331 0.39032036
-0.030848557 0.057770934 0.39037174
-0.029730031 0.057777233 0.3904143
-0.028611461 0.057783931 0.39045957
-0.027493458 0.057792373 0.39051661
-0.026374146 0.057798661 0.39055911
-0.025254434 0.057804596 0.39059919
-0.024134871 0.057811435 0.39064541
-0.023015466 0.05781934 0.39069882
-0.021894138 0.05782298 0.39072344
-0.020773184 0.057828054 0.39075771
-0.019652562 0.057834681 0.3908025
-0.018531099 0.05783949 0.39083499
-0.017409133 0.057843249 0.39086038
-0.016287912 0.057850171 0.39090717
-0.01516643 0.057857122 0.39095414
-0.014044004 0.057861295 0.39098233
-0.012921732 0.057866886 0.39102012
-0.011799552 0.057873994 0.39106813
-0.010677116 0.05788121 0.39111689
-0.0095545435 0.057889294 0.39117151
-0.0084290756 0.057879653 0.39110637
-0.007302653 0.057859484 0.39097008
-0.0061783474 0.057851799 0.39091817
-0.0050554681 0.057857025 0.39095348
-0.003934524 0.057893712 0.39120138
-0.0028118859 0.057924848 0.39141178
-0.0016856776 0.057874929 0.39107445
-0.00056141004 0.05782523 0.39073864
0.00056166487 0.057851482 0.39091602
0.0016865997 0.05790659 0.3912884
0.0028118405 0.057923913 0.39140546
0.0039281892 0.057800498 0.3905715
0.0050503123 0.057798017 0.39055476
0.0061780233 0.057848766 0.39089766
0.0073006731 0.057843793 0.39086407
0.0083757183 0.057513263 0.3886306
0.0095095951 0.057616957 0.38933128
-0.06582658 0.058082275 0.38499981
-0.065066837 0.058393318 0.38706157
-0.064088576 0.058515653 0.38787249
-0.062948726 0.05849218 0.38771689
-0.061826658 0.058484677 0.38766715
-0.060797848 0.058566734 0.38821107
-0.059754927 0.05863801 0.38868353
-0.058613207 0.058613207 0.38851911
-0.05746156 0.058577318 0.38828123
-0.056379173 0.058612011 0.38851118
-0.055326398 0.058679514 0.38895863
-0.054232355 0.058705129 0.38912842
-0.053091891 0.058680512 0.38896525
-0.051964365 0.058669444 0.38889188
-0.050865781 0.058691286 0.38903666
-0.04978814 0.058738817 0.38935173
-0.048686847 0.058759991 0.38949206
-0.047574893 0.058768988 0.3895517
-0.046460867 0.058775797 0.38959685
-0.045346301 0.058782242 0.38963956
-0.044236191 0.058794938 0.38972372
-0.04312294 0.058804009 0.38978386
-0.04200767 0.058810737 0.38982844
-0.040893868 0.058819946 0.38988948
-0.039779801 0.058829281 0.38995138
-0.038665354 0.05883858 0.39001301
-0.037550576 0.058847919 0.39007491
-0.036435269 0.058856975 0.39013493
-0.035319857 0.05886643 0.3901976
-0.034202214 0.058872666 0.39023894
-0.033085223 0.058880478 0.39029074
-0.031968553 0.058889441 0.39035013
-0.03085091 0.05889719 0.39040151
-0.029732289 0.05890359 0.39044392
-0.02861413 0.058911443 0.39049599
-0.027495798 0.058919568 0.39054984
-0.026376255 0.058925673 0.39059031
-0.025255715 0.058930002 0.39061901
-0.024136564 0.05893812 0.3906728
-0.023017917 0.058948327 0.39074045
-0.021895964 0.058950674 0.39075601
-0.020774361 0.058954265 0.39077982
-0.019654222 0.058962669 0.39083552
-0.018531606 0.0589642 0.39084569
-0.017410096 0.05896968 0.39088202
-0.016288793 0.058976665 0.3909283
-0.015167521 0.058984805 0.39098227
-0.014045077 0.058989324 0.39101222
-0.012922584 0.058994405 0.3910459
-0.011800329 0.059001643 0.39109388
-0.010677816 0.059008986 0.39114255
-0.009554754 0.059014656 0.39118013
-0.0084317233 0.059022065 0.39122924
-0.0073060784 0.059010632 0.39115345
-0.0061799227 0.058990169 0.39101782
-0.0050547309 0.058971863 0.39089647
-0.0039331946 0.058997918 0.39106917
-0.0028109672 0.059030309 0.3912839
-0.0016868456 0.059039596 0.39134544
-0.0005617261 0.05898124 0.39095864
0.00056145631 0.058952913 0.39077085
0.0016856528 0.058997843 0.3910687
0.0028120796 0.059053674 0.39143875
0.0039346945 0.059020419 0.39121833
0.005051259 0.058931358 0.39062798
0.006176061 0.058953311 0.3907735
0.0073057315 0.059007831 0.39113489
0.0084126862 0.058888808 0.39034593
0.0094816536 0.058563154 0.38818735
-0.066966139 0.059217989 0.38519096
-0.065908827 0.059262555 0.38548085
-0.065179795 0.059608873 0.38773352
-0.064074129 0.0596168 0.38778508
-0.062926479 0.059585251 0.38757986
-0.061873678 0.059643999 0.38796198
-0.060858388 0.059741721 0.38859764
-0.059744127 0.059744127 0.38861328
-0.058589295 0.059705283 0.38836062
-0.057467312 0.059699051 0.38832009
-0.056422696 0.05977454 0.38881111
-0.055351071 0.059823886 0.38913208
-0.054207977 0.059796426 0.38895348
-0.053075362 0.059779618 0.38884413
-0.051970161 0.059793629 0.38893527
-0.050894544 0.059843037 0.38925666
-0.049802177 0.059874527 0.38946149
-0.048689209 0.05988213 0.38951096
-0.047575522 0.059889186 0.38955685
-0.046462022 0.059896819 0.38960651
-0.045349251 0.059905801 0.38966492
-0.044238761 0.059918322 0.38974637
-0.043126021 0.059928365 0.38981169
-0.042009257 0.059933208 0.3898432
-0.040896494 0.059944179 0.38991454
-0.039783608 0.059955578 0.38998869
-0.038667701 0.059962958 0.3900367
-0.037552807 0.059972391 0.39009807
-0.036437634 0.059981953 0.39016026
-0.035321847 0.059991077 0.3902196
-0.034204319 0.059997737 0.39026293
-0.033088047 0.06000714 0.39032409
-0.031971343 0.060016382 0.3903842
-0.03085283 0.060022775 0.3904258
-0.029735189 0.060031418 0.39048201
-0.028616663 0.060038883 0.39053056
-0.027497787 0.060046189 0.39057809
-0.026378343 0.060052823 0.39062124
-0.025258111 0.060058177 0.39065605
-0.024138102 0.06006458 0.39069772
-0.023018898 0.060073711 0.39075711
-0.021897607 0.060078051 0.39078534
-0.020776162 0.060082413 0.39081371
-0.019655779 0.060090527 0.39086649
-0.018534189 0.060095705 0.39090016
-0.017412027 0.060099576 0.39092535
-0.016290445 0.060106121 0.39096794
-0.015168492 0.060112171 0.39100727
-0.014045779 0.060115933 0.39103174
-0.012923384 0.060121831 0.3910701
-0.011800958 0.060128689 0.39111471
-0.010678175 0.060134985 0.39115566
-0.0095549943 0.060140256 0.39118996
-0.0084320623 0.060148716 0.39124498
-0.0073079122 0.06014974 0.39125165
-0.0061825668 0.060139515 0.39118513
-0.0050562997 0.060113784 0.39101776
-0.0039323182 0.060108289 0.39098203
-0.0028101141 0.060136441 0.39116514
-0.0016870617 0.060171869 0.3913956
-0.00056220317 0.060155742 0.39129069
0.00056155736 0.060086638 0.39084119
0.0016849799 0.060097616 0.39091259
0.0028112961 0.060161736 0.39132968
0.0039376807 0.060190264 0.39151525
0.0050528259 0.060072489 0.39074916
0.0061742021 0.060058147 0.39065588
0.0073027834 0.060107525 0.39097705
0.0084252739 0.060100291 0.39093
0.0094961524 0.059769899 0.38878092
0.010636134 0.059898227 0.38961565
-0.066926248 0.060288936 0.38496152
-0.06617026 0.060609736 0.38700992
-0.065190144 0.060732696 0.38779506
-0.064054713 0.060712729 0.38766757
-0.062932901 0.060705189 0.38761941
-0.061918285 0.060802642 0.38824168
-0.060870524 0.060870524 0.38867512
-0.059718553 0.060834784 0.38844693
-0.058572836 0.060804181 0.38825151
-0.057498675 0.060848109 0.38853201
-0.056457948 0.060929865 0.38905403
-0.05533395 0.060923237 0.38901171
-0.054195493 0.060900092 0.38886392
-0.053069711 0.060890511 0.38880274
-0.05199771 0.060943555 0.38914144
-0.050919328 0.060991284 0.3894462
-0.049805731 0.06099803 0.38948929
-0.048691481 0.06100427 0.38952914
-0.047577973 0.061011754 0.38957691
-0.046463851 0.061018791 0.38962185
-0.045351002 0.061027892 0.38967997
-0.044238489 0.061037913 0.38974395
-0.043127708 0.061050911 0.38982695
-0.042012423 0.061058059 0.38987258
-0.04089953 0.061069161 0.38994348
-0.039784666 0.061077867 0.38999906
-0.038670186 0.061087687 0.39006177
-0.037555948 0.061098482 0.3901307
-0.036440071 0.061107196 0.39018634
-0.035323471 0.061115209 0.39023751
-0.034206331 0.061122786 0.39028588
-0.033091053 0.061134323 0.39035955
-0.031972516 0.061140426 0.39039853
-0.030853743 0.061146509 0.39043736
-0.029736202 0.061155587 0.39049533
-0.028618105 0.061164185 0.39055023
-0.027499296 0.061171904 0.39059952
-0.02638006 0.061179288 0.39064667
-0.025260463 0.061186455 0.39069244
-0.024139812 0.061191618 0.3907254
-0.023020007 0.061199531 0.39077592
-0.021899462 0.061206184 0.39081842
-0.020777881 0.061210517 0.39084607
-0.019656936 0.061217312 0.39088947
-0.018535689 0.061223939 0.39093179
-0.017413016 0.061226413 0.39094758
-0.016291177 0.061232354 0.39098552
-0.015169226 0.061238725 0.3910262
-0.014046898 0.061244477 0.39106292
-0.012923472 0.061246015 0.39107275
-0.011800541 0.061250422 0.39110088
-0.010678216 0.06125924 0.39115718
-0.0095551973 0.061265677 0.39119828
-0.0084318109 0.061271161 0.3912333
-0.0073090186 0.061283309 0.39131087
-0.0061845304 0.061283074 0.39130938
-0.0050584408 0.061263338 0.39118335
-0.0039326209 0.061236527 0.39101216
-0.0028095075 0.061247263 0.39108071
-0.0016868877 0.061290253 0.39135522
-0.00056242262 0.061304066 0.3914434
0.00056190952 0.061248135 0.39108628
0.0016849273 0.061219025 0.3909004
0.0028099434 0.061256766 0.39114138
0.0039367126 0.06130024 0.39141899
0.0050588693 0.061268527 0.39121649
0.0061737201 0.061175954 0.39062539
0.0072991648 0.061200686 0.39078331
0.0084312884 0.061267365 0.39120907
0.0095338048 0.061128512 0.39032245
0.010612786 0.060883876 0.38876039
-0.068092071 0.061448939 0.38529876
-0.067010999 0.061472896 0.38544899
-0.06628231 0.061826359 0.38766527
-0.065186627 0.061843723 0.38777414
-0.064039521 0.061812062 0.38757563
-0.062966503 0.061852049 0.38782635
-0.061968051 0.061968051 0.38855371
-0.060852326 0.061968882 0.38855892
-0.059695967 0.061927594 0.38830003
-0.058590136 0.061938144 0.38836619
-0.057538234 0.062007226 0.38879934
-0.056456972 0.06204677 0.38904729
-0.055315025 0.062019877 0.38887867
-0.054182362 0.062002495 0.38876969
-0.053094901 0.062037203 0.3889873
-0.052020591 0.062089089 0.38931265
-0.050918981 0.062109966 0.38944355
-0.049805347 0.062116779 0.38948628
-0.04869258 0.062125016 0.38953793
-0.047579017 0.062132601 0.38958547
-0.046465982 0.062141255 0.38963974
-0.045354642 0.062152658 0.38971123
-0.044240829 0.062161162 0.38976458
-0.043129139 0.062173177 0.38983989
-0.042016573 0.062184531 0.38991109
-0.040901717 0.062193025 0.38996434
-0.039785992 0.062200639 0.39001209
-0.038673211 0.062213428 0.39009228
-0.037559394 0.062225264 0.39016649
-0.036441784 0.062231358 0.3902047
-0.035325196 0.062239632 0.39025658
-0.034208849 0.062248889 0.39031464
-0.033092514 0.062258799 0.39037678
-0.031973973 0.062265109 0.39041632
-0.030855846 0.062272709 0.39046398
-0.029739663 0.062284958 0.39054078
-0.028621536 0.062293928 0.39059705
-0.027500996 0.062298175 0.39062366
-0.026382003 0.062306434 0.39067546
-0.025262231 0.062313501 0.39071977
-0.024141381 0.062318444 0.39075077
-0.023021182 0.062325638 0.39079586
-0.021900954 0.062333483 0.39084506
-0.020779347 0.062338043 0.39087364
-0.01965801 0.062343977 0.39091086
-0.018536285 0.062349319 0.39094436
-0.017414531 0.062355258 0.39098158
-0.016292393 0.062360536 0.3910147
-0.015170098 0.06236596 0.3910487
-0.014047869 0.062372535 0.39108992
-0.012924738 0.062375911 0.39111108
-0.01180101 0.062376771 0.39111647
-0.010678725 0.062386237 0.39117584
-0.009555581 0.06239232 0.39121398
-0.0084316554 0.062394246 0.39122605
-0.0073091229 0.062408667 0.39131647
-0.0061858031 0.062420379 0.39138991
-0.0050597899 0.062404074 0.39128768
-0.0039338917 0.06238028 0.39113849
-0.0028092884 0.062366202 0.39105022
-0.0016862702 0.062391996 0.39121196
-0.00056239933 0.062426325 0.39142719
0.00056233502 0.062419191 0.39138246
0.0016851627 0.062351018 0.390955
0.002808827 0.062355962 0.390986
0.0039367364 0.062425386 0.39142132
0.0050635533 0.062450495 0.39157873
0.0061785677 0.062347364 0.39093208
0.0072977124 0.062311236 0.39070556
0.0084295617 0.062378757 0.39112893
0.0095520085 0.062369 0.39106774
0.010616007 0.062019832 0.38887841
-0.06803105 0.062500075 0.3849535
-0.067169689 0.062728718 0.38636181
-0.066304162 0.062961094 0.38779306
-0.065171652 0.062943563 0.38768506
-0.064033031 0.062919408 0.38753632
-0.06301526 0.06301526 0.38812667
-0.061974756 0.06309142 0.38859576
-0.060832784 0.063065179 0.38843414
-0.059685439 0.063032284 0.38823155
-0.058617719 0.063083835 0.38854903
-0.057572469 0.063162029 0.38903067
-0.056446679 0.063153215 0.38897637
-0.055306025 0.063127078 0.3888154
-0.054193322 0.063132428 0.38884833
-0.053120084 0.063184939 0.38917178
-0.052037198 0.063227996 0.38943696
-0.050919313 0.063229471 0.38944608
-0.049805287 0.063235924 0.38948581
-0.048692185 0.063243873 0.38953477
-0.047580034 0.063253455 0.38959378
-0.046471875 0.063268937 0.38968915
-0.045360722 0.063281007 0.38976347
-0.044244319 0.063286178 0.38979533
-0.043131042 0.063296206 0.38985708
-0.042018924 0.063308515 0.3899329
-0.040905129 0.063318901 0.38999686
-0.03979044 0.063328452 0.39005569
-0.038676251 0.063339368 0.39012292
-0.037561219 0.063349523 0.39018548
-0.036442764 0.063354343 0.39021519
-0.035326954 0.063364223 0.39027601
-0.034211505 0.063375413 0.39034495
-0.033094551 0.063384481 0.3904008
-0.031976011 0.063391045 0.39044121
-0.030858248 0.063399673 0.39049438
-0.02974169 0.063411526 0.39056739
-0.028623145 0.063419908 0.39061901
-0.027502732 0.063424669 0.39064834
-0.02638365 0.063433029 0.39069983
-0.025264183 0.063441172 0.39074996
-0.02414328 0.063446291 0.39078152
-0.02302181 0.063450351 0.39080653
-0.021901594 0.063458465 0.3908565
-0.020780377 0.063464396 0.39089301
-0.0196582 0.063467905 0.39091462
-0.018537464 0.063476771 0.39096925
-0.01741581 0.063483432 0.39101028
-0.016293932 0.063490145 0.39105162
-0.015170879 0.063492939 0.39106882
-0.014048192 0.063497826 0.39109892
-0.01292507 0.063501433 0.39112112
-0.011802151 0.063506812 0.39115426
-0.010679647 0.063515797 0.3912096
-0.0095560746 0.063519791 0.39123422
-0.0084323706 0.063523859 0.39125928
-0.0073088221 0.063530527 0.39130035
-0.0061856066 0.063543044 0.39137745
-0.0050612595 0.063546926 0.39140132
-0.0039353212 0.063527323 0.39128062
-0.0028096943 0.063499086 0.39110669
-0.0016857204 0.063495472 0.3910844
-0.0005622945 0.063539281 0.39135423
0.00056254485 0.063567571 0.39152849
0.0016860222 0.063506834 0.39115441
0.0028084472 0.063470908 0.39093313
0.0039347787 0.063518569 0.39122668
0.0050623859 0.063561067 0.39148843
0.0061821798 0.063507847 0.39116064
0.0072985999 0.063441679 0.39075309
0.008426589 0.063480303 0.390991
0.0095581859 0.063533828 0.39132065
0.010633501 0.063241348 0.38951921
0.011732551 0.063132301 0.38884756
-0.068058737 0.063632153 0.38511017
-0.067341603 0.06400235 0.38735065
-0.066308074 0.064079233 0.38781595
-0.065158762 0.064044937 0.38760841
-0.06405779 0.06405779 0.38768619
-0.063064598 0.064180784 0.38843057
-0.061972879 0.064206138 0.38858399
-0.060814399 0.064161979 0.38831675
-0.059697617 0.064160988 0.38831076
-0.058646064 0.064231403 0.3887369
-0.057568915 0.064275973 0.38900664
-0.056433007 0.064255401 0.38888216
-0.055293959 0.064230353 0.38873056
-0.054212522 0.064272583 0.38898611
-0.053140894 0.064328447 0.38932425
-0.052037716 0.064347714 0.38944083
-0.050919525 0.064348854 0.38944772
-0.049807426 0.064357907 0.38950253
-0.048694633 0.064366467 0.38955435
-0.047582448 0.064376257 0.38961357
-0.046472449 0.064389534 0.38969395
-0.045361254 0.064401783 0.38976806
-0.044245619 0.064408176 0.38980678
-0.043133091 0.064419553 0.38987562
-0.042021483 0.064432941 0.38995665
-0.040908009 0.064444125 0.39002433
-0.039793119 0.064453647 0.39008194
-0.038678538 0.064464226 0.39014599
-0.037562519 0.064472981 0.39019898
-0.036445547 0.064480588 0.39024499
-0.035329565 0.064490475 0.39030486
-0.034213781 0.06450139 0.39037091
-0.033096705 0.064510524 0.39042619
-0.031978872 0.06451878 0.39047614
-0.030861255 0.064528078 0.39053243
-0.029742708 0.064536065 0.39058077
-0.028624075 0.064544484 0.39063171
-0.027504871 0.064552248 0.3906787
-0.026385192 0.064559512 0.39072266
-0.025265625 0.064567707 0.39077225
-0.024145387 0.064574867 0.39081562
-0.023024006 0.064579532 0.39084381
-0.021903362 0.064586833 0.39088804
-0.020782147 0.064593159 0.3909263
-0.019660316 0.06459818 0.3909567
-0.018538805 0.064604923 0.3909975
-0.017417109 0.064611852 0.39103943
-0.016294511 0.064616166 0.39106554
-0.015171566 0.064619631 0.39108652
-0.01404907 0.064625725 0.39112338
-0.012926463 0.064632319 0.39116329
-0.011803765 0.064639665 0.39120775
-0.010680401 0.06464453 0.3912372
-0.0095566977 0.064648248 0.39125973
-0.0084331082 0.064653829 0.3912935
-0.0073093032 0.064659216 0.3913261
-0.0061855884 0.064667515 0.39137632
-0.0050618183 0.064678788 0.39144453
-0.0039365394 0.064671718 0.39140177
-0.0028106996 0.064646088 0.39124665
-0.0016857961 0.064622186 0.39110196
-0.00056212844 0.064644769 0.39123866
0.00056254363 0.06469252 0.39152762
0.0016873815 0.064682961 0.39146978
0.002808674 0.064599499 0.39096469
0.0039332905 0.064618349 0.39107874
0.0050623454 0.064685524 0.3914853
0.0061881179 0.064693958 0.39153636
0.0072988602 0.064566836 0.39076701
0.0084230946 0.064577058 0.39082885
0.0095551778 0.064637966 0.3911975
0.01066038 0.064523354 0.39050382
0.011735389 0.064265229 0.38894162
-0.069184817 0.064756989 0.38521835
-0.068156816 0.064832091 0.38566515
-0.067409575 0.065181158 0.38774163
-0.066292226 0.065178074 0.38772327
-0.065155819 0.065155819 0.38759089
-0.064093836 0.065208517 0.38790435
-0.063084923 0.065318018 0.38855574
-0.061956204 0.065305188 0.38847944
-0.060801394 0.065263882 0.38823372
-0.059715077 0.065295927 0.38842434
-0.058671407 0.065376714 0.3889049
-0.057559114 0.065382682 0.38894042
-0.056419313 0.065357029 0.38878781
-0.055303376 0.065358534 0.38879678
-0.054231383 0.06541311 0.38912144
-0.053154279 0.065463692 0.3894223
-0.052034803 0.065463141 0.38941902
-0.050919745 0.065468244 0.38944939
-0.049807984 0.065477915 0.38950691
-0.048696917 0.065488957 0.38957262
-0.0475845 0.065498665 0.38963035
-0.046471644 0.065508224 0.38968721
-0.045360025 0.065520033 0.38975748
-0.04424841 0.065532453 0.38983136
-0.043136626 0.065545268 0.38990757
-0.042023711 0.065556988 0.38997731
