# .PCD v0.7 - Point Cloud Data file format
VERSION 0.7
FIELDS x y z
SIZE 4 4 4
TYPE F F F
COUNT 1 1 1
WIDTH 1318
HEIGHT 1
VIEWPOINT 0 0 0 1 0 0 0
POINTS 1318
DATA ascii
-0.046706274 -0.0071433126 0.38243929
-0.045583989 -0.0071396609 0.38224378
-0.044468753 -0.0071369605 0.38209921
-0.043359652 -0.0071351323 0.38200134
-0.042260911 -0.0071349591 0.38199207
-0.041180152 -0.0071378932 0.38214916
-0.040118653 -0.0071444181 0.38249847
-0.03907771 -0.0071550733 0.38306895
-0.038052287 -0.0071692714 0.38382909
-0.037026037 -0.0071841567 0.384626
-0.036001485 -0.007200297 0.38549012
-0.034972195 -0.0072164843 0.38635677
-0.033938829 -0.0072328653 0.38723376
-0.032903939 -0.0072500207 0.38815224
-0.031872038 -0.0072690612 0.38917163
-0.030840056 -0.0072894674 0.39026415
-0.029804634 -0.0073105702 0.39139396
-0.02877064 -0.0073336926 0.39263189
-0.027745079 -0.0073609394 0.39409062
-0.02678939 -0.007409831 0.39670819
-0.062985227 -0.0062417793 0.39493164
-0.061284471 -0.0061846715 0.39131829
-0.059943553 -0.0061624213 0.38991049
-0.058628604 -0.0061420444 0.38862118
-0.057358943 -0.0061257123 0.38758782
-0.056103434 -0.0061102752 0.38661107
-0.054869588 -0.006096621 0.38574713
-0.05366119 -0.0060852896 0.38503018
-0.052467879 -0.0060752281 0.38439357
-0.051285584 -0.0060660369 0.38381201
-0.05011471 -0.0060578221 0.38329226
-0.048960511 -0.0060512992 0.38287953
-0.047820255 -0.0060462388 0.38255936
-0.046690147 -0.0060422542 0.38230723
-0.045569535 -0.0060393359 0.38212258
-0.044455543 -0.0060371724 0.38198569
-0.043349013 -0.0060359384 0.38190761
-0.042251766 -0.0060359668 0.3819094
-0.041173656 -0.0060388027 0.38208884
-0.040115029 -0.0060447305 0.3824639
-0.039077245 -0.0060542207 0.38306439
-0.038052626 -0.0060663605 0.38383248
-0.037025385 -0.0060787941 0.38461921
-0.036001254 -0.00609252 0.38548765
-0.034972407 -0.0061062933 0.38635913
-0.033938043 -0.0061199749 0.38722479
-0.032905173 -0.0061348625 0.38816679
-0.031873304 -0.0061509884 0.3891871
-0.030843167 -0.0061686332 0.39030352
-0.029808454 -0.0061866604 0.39144415
-0.028773801 -0.0062061138 0.39267501
-0.027748579 -0.006229273 0.39414033
-0.026815252 -0.0062759104 0.39709118
-0.062685505 -0.0050826087 0.39305231
-0.061228137 -0.0050555342 0.39095858
-0.059889577 -0.0050374409 0.38955939
-0.05857994 -0.0050211377 0.3882986
-0.057321467 -0.0050086719 0.38733459
-0.056065165 -0.0049959058 0.38634735
-0.054841753 -0.0049856137 0.38555145
-0.053634688 -0.0049764141 0.38484001
-0.052441355 -0.0049681282 0.38419923
-0.051264331 -0.0049610641 0.38365296
-0.050094593 -0.0049544103 0.38313839
-0.048941392 -0.0049491297 0.38273001
-0.047802851 -0.0049451222 0.38242012
-0.046674393 -0.0049419948 0.38217825
-0.045556072 -0.004939815 0.38200969
-0.044441421 -0.0049379356 0.38186434
-0.043337449 -0.004937178 0.38180575
-0.042244256 -0.0049376404 0.38184151
-0.041167729 -0.0049401275 0.38203385
-0.040113904 -0.0049455496 0.38245317
-0.039078288 -0.0049535856 0.38307461
-0.038053051 -0.0049634413 0.38383678
-0.037029505 -0.0049741128 0.38466203
-0.036003221 -0.0049850615 0.38550872
-0.03497199 -0.0049959989 0.38635454
-0.033938583 -0.0050073317 0.38723096
-0.032907359 -0.0050197667 0.38819259
-0.031877343 -0.0050332644 0.38923639
-0.030846912 -0.0050476766 0.39035094
-0.029813502 -0.00506267 0.39151043
-0.028777167 -0.0050783237 0.39272094
-0.027754469 -0.0050977594 0.39422399
-0.02685198 -0.0051418683 0.39763504
-0.062546603 -0.0039443802 0.39218137
-0.061172418 -0.003928504 0.3906028
-0.059835237 -0.003914455 0.38920593
-0.058539849 -0.0039026565 0.38803285
-0.05727971 -0.0038927956 0.38705242
-0.056023162 -0.0038827935 0.38605791
-0.054807369 -0.0038752686 0.38530973
-0.053604543 -0.0038683692 0.38462374
-0.05241441 -0.0038621142 0.38400182
-0.05123885 -0.0038566876 0.38346225
-0.050072346 -0.003851719 0.38296825
-0.04892331 -0.0038479008 0.3825886
-0.047786541 -0.003844894 0.38228965
-0.046659444 -0.0038425422 0.38205582
-0.045542084 -0.0038408984 0.38189238
-0.044429705 -0.0038396039 0.38176367
-0.043325845 -0.003838999 0.38170353
-0.042235147 -0.0038395589 0.3817592
-0.041164357 -0.0038420067 0.38200256
-0.040115647 -0.0038467059 0.3824698
-0.039083559 -0.0038533085 0.38312629
-0.038057331 -0.0038608885 0.38387996
-0.037030283 -0.0038688355 0.38467011
-0.036004778 -0.0038774377 0.38552541
-0.034974568 -0.0038860631 0.386383
-0.033941992 -0.0038949826 0.38726985
-0.032909494 -0.0039045161 0.38821775
-0.031881087 -0.0039152214 0.38928214
-0.030853316 -0.0039267857 0.39043197
-0.029820286 -0.0039385282 0.39159951
-0.02878638 -0.0039510718 0.39284667
-0.027763516 -0.0039662165 0.3943525
-0.026869927 -0.0040019038 0.39790082
-0.062478486 -0.0028143462 0.39175427
-0.061116669 -0.002803517 0.39024684
-0.059786603 -0.0027937666 0.38888958
-0.058499131 -0.0027856729 0.38776296
-0.057236597 -0.0027784756 0.3867611
-0.055985533 -0.002771561 0.3857986
-0.054773867 -0.002766357 0.3850742
-0.053573634 -0.0027615274 0.38440195
-0.052387707 -0.0027572478 0.3838062
-0.051214885 -0.0027534883 0.3832829
-0.050052721 -0.0027501495 0.38281813
-0.048903678 -0.0027473976 0.38243508
-0.047770396 -0.0027454249 0.38216048
-0.046644699 -0.0027438058 0.38193509
-0.045529287 -0.0027427282 0.38178509
-0.044417724 -0.0027418348 0.38166073
-0.043316022 -0.0027415203 0.38161695
-0.042229708 -0.0027421887 0.38171002
-0.04116559 -0.0027443727 0.38201401
-0.040120617 -0.0027479874 0.38251719
-0.039090406 -0.0027528454 0.3831934
-0.038061984 -0.0027581148 0.3839269
-0.037035756 -0.0027638625 0.38472697
-0.036009666 -0.0027699741 0.38557771
-0.034978174 -0.0027760456 0.38642284
-0.03394654 -0.0027825031 0.38732174
-0.032915503 -0.0027894494 0.38828865
-0.031885374 -0.0027969626 0.38933447
-0.030859526 -0.0028054116 0.39051056
-0.029827811 -0.0028139444 0.39169833
-0.028795777 -0.0028231153 0.39297491
-0.027772605 -0.0028339394 0.3944816
-0.026909001 -0.0028626595 0.39847943
-0.062409978 -0.0016867561 0.3913247
-0.061053909 -0.0016803828 0.38984609
-0.059728298 -0.0016746251 0.38851032
-0.058451477 -0.0016700422 0.38744709
-0.057192486 -0.0016658005 0.38646302
-0.055950318 -0.0016618905 0.38555592
-0.054741826 -0.0016588431 0.38484892
-0.053544119 -0.0016560036 0.38419017
-0.05236211 -0.0016535404 0.38361868
-0.051189553 -0.0016512759 0.38309333
-0.050032008 -0.001649407 0.38265973
-0.048887391 -0.0016478896 0.38230771
-0.047753979 -0.0016466889 0.38202915
-0.046631444 -0.0016458157 0.38182658
-0.045515656 -0.0016451443 0.3816708
-0.044406496 -0.001644685 0.38156426
-0.043307871 -0.0016446026 0.38154516
-0.042226404 -0.0016451846 0.38168016
-0.041166224 -0.0016466489 0.38201988
-0.040126927 -0.0016490519 0.38257736
-0.039097749 -0.0016520175 0.38326538
-0.038069718 -0.0016552052 0.38400492
-0.037042562 -0.0016586222 0.38479766
-0.036015388 -0.0016622486 0.38563898
-0.034984119 -0.0016659105 0.38648853
-0.033951461 -0.001669744 0.38737792
-0.032923032 -0.0016740524 0.38837746
-0.031894568 -0.0016786616 0.38944677
-0.030867532 -0.0016836836 0.39061186
-0.029836353 -0.0016888502 0.39181051
-0.028806085 -0.0016944755 0.39311558
-0.027791886 -0.001701544 0.39475545
-0.02697725 -0.0017219522 0.39949012
-0.06382288 -0.00056480424 0.39310101
-0.062332053 -0.00056155003 0.39083609
-0.060988192 -0.00055952469 0.38942647
-0.059672263 -0.00055768469 0.38814583
-0.058403954 -0.00055622816 0.38713208
-0.057147212 -0.00055482727 0.3861571
-0.055913497 -0.00055359898 0.38530219
-0.05470816 -0.0005526077 0.38461226
-0.053517066 -0.00055172236 0.38399607
-0.052336548 -0.00055091106 0.3834314
-0.0511664 -0.00055017637 0.38292006
-0.050011158 -0.00054957316 0.38250026
-0.048869703 -0.00054909778 0.3821694
-0.04773894 -0.00054872344 0.38190883
-0.046618182 -0.00054844923 0.38171798
-0.045500927 -0.00054820394 0.38154727
-0.044394352 -0.00054807845 0.38145992
-0.043299813 -0.00054809888 0.38147417
-0.042222068 -0.00054833858 0.38164097
-0.04117085 -0.00054894469 0.38206282
-0.040136177 -0.00054981065 0.38266554
-0.039107099 -0.00055080419 0.38335705
-0.038077973 -0.00055185473 0.38408819
-0.03705084 -0.00055299758 0.38488364
-0.036022648 -0.00055419456 0.38571674
-0.034991596 -0.00055542216 0.38657114
-0.033958554 -0.0005566976 0.38745883
-0.032932088 -0.00055817096 0.38848427
-0.031904608 -0.00055972999 0.38956934
-0.030876804 -0.00056139642 0.39072919
-0.029846784 -0.00056314684 0.39194748
-0.028819423 -0.00056508672 0.39329761
-0.027814487 -0.00056764256 0.39507648
-0.063634723 0.0005631391 0.39194208
-0.062259067 0.00056089251 0.39037845
-0.060925215 0.00055894692 0.38902435
-0.059624538 0.0005572387 0.38783541
-0.058357991 0.00055579038 0.38682741
-0.057101186 0.00055438047 0.38584611
-0.055874232 0.00055321021 0.38503161
-0.054674719 0.00055226986 0.38437715
-0.053486377 0.00055140594 0.38377586
-0.05230777 0.00055060809 0.38322055
-0.051142935 0.00054992404 0.38274446
-0.049991626 0.00054935855 0.38235086
-0.048852913 0.00054890913 0.38203809
-0.047723696 0.00054854818 0.38178688
-0.04660299 0.00054827047 0.38159359
-0.045488637 0.00054805586 0.38144422
-0.04438287 0.00054793665 0.38136125
-0.043292597 0.00054800755 0.3814106
-0.042222057 0.0005483384 0.38164085
-0.041177057 0.00054902741 0.3821204
-0.040144224 0.00054992089 0.38274226
-0.039115332 0.00055092014 0.38343775
-0.038087275 0.00055198948 0.38418201
-0.037059441 0.00055312598 0.38497299
-0.036031161 0.00055432558 0.3858079
-0.0349994 0.00055554608 0.38665736
-0.033969991 0.00055688515 0.38758934
-0.032942787 0.00055835227 0.38861048
-0.031915832 0.00055992691 0.3897064
-0.030889317 0.00056162395 0.39088753
-0.029858284 0.00056336384 0.39209849
-0.028834425 0.00056538091 0.39350235
-0.027837889 0.00056812022 0.3954089
-0.063555703 0.0016873196 0.39145541
-0.062190019 0.0016808114 0.38994551
-0.060862705 0.0016751203 0.3886252
-0.059572421 0.0016702549 0.38749641
-0.058310881 0.0016660251 0.38651514
-0.057056781 0.0016618479 0.38554603
-0.055837449 0.001658538 0.38477814
-0.054642748 0.0016558408 0.38415238
-0.053456917 0.0016533067 0.38356447
-0.052283216 0.0016510489 0.38304067
-0.051122077 0.0016490993 0.38258836
-0.049972083 0.0016474314 0.3822014
-0.048836123 0.0016461614 0.38190678
-0.047709148 0.0016451431 0.38167053
-0.046590425 0.0016443679 0.38149071
-0.045475662 0.0016436985 0.38133541
-0.044373345 0.0016434572 0.38127941
-0.043284804 0.0016437267 0.38134193
-0.042221919 0.0016450097 0.3816396
-0.041185178 0.0016474071 0.38219577
-0.04015192 0.0016500789 0.38281563
-0.039125092 0.001653173 0.38353345
-0.03809784 0.0016564279 0.38428858
-0.037070479 0.0016598722 0.38508767
-0.036041491 0.0016634534 0.3859185
-0.035010166 0.0016671508 0.38677627
-0.033981755 0.0016712339 0.38772357
-0.032955259 0.0016756912 0.38875765
-0.031928502 0.0016804474 0.38986108
-0.030902283 0.0016855791 0.39105162
-0.029871605 0.0016908456 0.39227343
-0.028849805 0.0016970473 0.39371222
-0.027867718 0.0017061868 0.39583257
-0.065037794 0.0028277303 0.3936173
-0.063468531 0.002808342 0.39091846
-0.062116548 0.0027980427 0.38948482
-0.060799833 0.0027889831 0.38822374
-0.059516974 0.0027811669 0.38713574
-0.058256295 0.0027741094 0.38615331
-0.057011306 0.0027675391 0.38523877
-0.055800762 0.0027624138 0.38452533
-0.054612517 0.002758208 0.38393986
-0.053431153 0.002754183 0.38337961
-0.052260224 0.0027505381 0.38287222
-0.051101699 0.0027474032 0.38243586
-0.049954221 0.0027447375 0.38206479
-0.048819646 0.0027426768 0.38177794
-0.047694813 0.0027410814 0.38155586
-0.046577208 0.0027398358 0.38138247
-0.045465663 0.0027388954 0.38125157
-0.044365607 0.0027386176 0.38121292
-0.043283664 0.0027394723 0.38133189
-0.042229973 0.002742206 0.38171241
-0.041191332 0.0027460889 0.3822529
-0.04016111 0.0027507609 0.38290325
-0.039136682 0.0027561043 0.38364705
-0.038108997 0.0027615216 0.38440111
-0.037083272 0.0027674085 0.38522056
-0.036054023 0.0027733862 0.38605267
-0.035022367 0.0027795529 0.38691106
-0.03399561 0.0027865253 0.38788161
-0.032969628 0.0027940362 0.38892713
-0.031942822 0.002802002 0.39003596
-0.030915758 0.0028105234 0.39122212
-0.029887551 0.0028195805 0.39248285
-0.028871847 0.0028305734 0.39401305
-0.027939573 0.0028509768 0.39685321
-0.064763442 0.0039421227 0.3919569
-0.06338051 0.0039262264 0.39037636
-0.062042065 0.0039125625 0.38901779
-0.060733832 0.0039003377 0.3878023
-0.059458651 0.0038898182 0.38675636
-0.058199074 0.0038799383 0.38577402
-0.056966949 0.0038715401 0.38493901
-0.055769682 0.0038652255 0.38431117
-0.054583468 0.0038594371 0.38373563
-0.053405963 0.0038540384 0.38319886
-0.052239221 0.0038492058 0.38271835
-0.051080775 0.0038447895 0.38227925
-0.049936727 0.0038412868 0.38193098
-0.04880387 0.0038385065 0.38165456
-0.047680419 0.0038363556 0.3814407
-0.04656411 0.0038346916 0.38127524
-0.045458205 0.0038338243 0.38118902
-0.044362497 0.0038337959 0.38118619
-0.043287348 0.0038355878 0.38136435
-0.042236924 0.0038397205 0.38177526
-0.0411973 0.0038450814 0.38230827
-0.040173054 0.0038522107 0.38301712
-0.039149135 0.003859774 0.38376912
-0.03812233 0.0038674825 0.38453558
-0.037095424 0.0038756412 0.38534677
-0.036066342 0.0038840678 0.3861846
-0.035037715 0.0038930792 0.38708061
-0.034010127 0.0039028015 0.38804728
-0.032984473 0.0039134119 0.38910225
-0.031959932 0.0039249039 0.39024487
-0.030932464 0.0039368588 0.39143354
-0.029905051 0.0039497237 0.39271265
-0.028895786 0.0039660884 0.39433974
-0.02807205 0.0040102927 0.3987349
-0.064657733 0.0050601703 0.3913171
-0.063295744 0.0050412542 0.38985425
-0.061971333 0.0050247028 0.3885743
-0.060672194 0.0050096307 0.38740873
-0.059399832 0.0049962476 0.38637379
-0.058149301 0.0049842256 0.3854441
-0.056933753 0.0049747941 0.38471472
-0.05573919 0.0049668583 0.38410103
-0.05455409 0.0049594627 0.3835291
-0.053379864 0.0049527711 0.38301161
-0.052214514 0.0049466379 0.38253734
-0.051060837 0.0049413713 0.38213006
-0.049919244 0.0049370681 0.38179725
-0.048789091 0.0049337284 0.38153899
-0.047667064 0.0049310755 0.38133386
-0.046553388 0.0049291826 0.38118744
-0.045448937 0.0049281982 0.38111132
-0.044359293 0.0049288105 0.38115868
-0.043290604 0.004931841 0.38139305
-0.04224522 0.0049377531 0.38185024
-0.041212261 0.0049454714 0.38244712
-0.040186316 0.0049544773 0.38314357
-0.039160602 0.0049640196 0.38388151
-0.038136467 0.0049743215 0.38467818
-0.037110131 0.0049849432 0.38549957
-0.036080658 0.0049957838 0.38633791
-0.035054412 0.0050077732 0.38726509
-0.034026481 0.0050203009 0.38823387
-0.033000544 0.0050339811 0.38929182
-0.031978715 0.0050492706 0.3904742
-0.030952176 0.0050649014 0.39168298
-0.029925385 0.0050816694 0.39297968
-0.028929932 0.0051052822 0.39480573
-0.066161841 0.006220344 0.39357537
-0.064560585 0.0061753602 0.39072916
-0.063212581 0.0061534368 0.38934201
-0.061898287 0.0061340644 0.38811627
-0.060608163 0.00611642 0.38699988
-0.05934149 0.006100527 0.38599429
-0.058099702 0.0060866354 0.38511533
-0.056899518 0.0060766474 0.38448337
-0.055709176 0.0060673361 0.38389421
-0.054525498 0.0060583889 0.38332811
-0.053354107 0.0060504661 0.38282681
-0.052190073 0.0060430611 0.38235828
-0.051039014 0.006036873 0.38196674
-0.049900524 0.0060319314 0.38165408
-0.048775163 0.006028391 0.38143006
-0.047655344 0.0060253884 0.3812401
-0.046543054 0.0060232189 0.38110283
-0.045444455 0.0060227592 0.38107374
-0.044359762 0.0060241651 0.3811627
-0.043299221 0.0060290056 0.38146895
-0.042259157 0.006037022 0.38197619
-0.041227799 0.0060467441 0.38259131
-0.040201899 0.0060578203 0.38329214
-0.039177373 0.0060697338 0.38404593
-0.038153317 0.0060824128 0.38484815
-0.037125703 0.006095265 0.38566133
-0.036097325 0.0061087776 0.38651633
-0.03507039 0.0061234012 0.38744158
-0.034044869 0.0061392384 0.38844365
-0.033019301 0.0061561405 0.38951308
-0.03199904 0.0061752535 0.39072239
-0.030973099 0.0061946199 0.39194775
-0.029954731 0.0062170201 0.39336506
-0.028972687 0.006249011 0.3953892
-0.065874398 0.0073193777 0.39186549
-0.064463362 0.0072871628 0.39014077
-0.063129358 0.0072626695 0.38882944
-0.061827909 0.0072411066 0.38767499
-0.060545806 0.0072210594 0.38660172
-0.059287019 0.0072030956 0.38563997
-0.058055095 0.0071877735 0.38481966
-0.056863584 0.0071769571 0.38424057
-0.055674683 0.0071660485 0.38365653
-0.054497886 0.0071562883 0.38313398
-0.053327799 0.0071470249 0.38263804
-0.052166004 0.0071385056 0.38218194
-0.051020015 0.0071318303 0.38182455
-0.049883775 0.0071262536 0.38152599
-0.048760489 0.0071223187 0.38131532
-0.047644172 0.0071192444 0.38115072
-0.046534106 0.0071169809 0.38102955
-0.045438275 0.0071168384 0.38102192
-0.044360485 0.0071195839 0.3811689
-0.04330761 0.0071265688 0.38154286
-0.04227319 0.0071370322 0.38210306
-0.041243602 0.0071488912 0.38273796
-0.04021718 0.0071619637 0.38343784
-0.039191451 0.0071758996 0.38418394
-0.038167469 0.0071909721 0.3849909
-0.037142299 0.0072067152 0.38583374
-0.036114529 0.0072229058 0.38670057
-0.035087693 0.0072403178 0.38763276
-0.034064796 0.0072597112 0.38867104
-0.033041783 0.007280393 0.38977832
-0.03202058 0.0073029394 0.3909854
-0.031001965 0.0073277373 0.39231303
-0.02999224 0.0073565869 0.3938576
-0.029016351 0.007396325 0.3959851
-0.065757997 0.0084305126 0.39117303
-0.064380355 0.0083974376 0.38963839
-0.063049063 0.0083693443 0.38833487
-0.061750926 0.0083447192 0.38719228
-0.060489308 0.0083242171 0.38624096
-0.059239816 0.0083046472 0.38533294
-0.058015488 0.0082879271 0.38455713
-0.056827012 0.008275779 0.38399345
-0.055644095 0.0082639745 0.38344574
-0.054467116 0.0082525928 0.38291764
-0.053300843 0.0082423985 0.38244462
-0.052143149 0.008233129 0.38201451
-0.05100178 0.0082260929 0.38168806
-0.049868193 0.0082200319 0.38140681
-0.048747893 0.0082159368 0.38121682
-0.047633044 0.0082125943 0.3810617
-0.046526864 0.0082106227 0.38097024
-0.045435514 0.0082112374 0.38099876
-0.044365138 0.0082157664 0.3812089
-0.043318208 0.0082249762 0.38163623
-0.042287517 0.0082378276 0.38223255
-0.041260384 0.0082520768 0.38289368
-0.040234841 0.0082674334 0.38360623
-0.039211359 0.0082840901 0.38437909
-0.038186256 0.0083013596 0.38518041
-0.037159648 0.0083193248 0.38601395
-0.036133479 0.0083384961 0.38690349
-0.035106 0.0083585717 0.387835
-0.034083504 0.0083811898 0.38888448
-0.033065103 0.0084063821 0.39005339
-0.032045938 0.0084331408 0.39129502
-0.031032145 0.0084633119 0.39269495
-0.030036977 0.0085010314 0.39444509
-0.029155934 0.0085752746 0.39788997
-0.067136452 0.0095909219 0.39266089
-0.065654166 0.0095394943 0.39055538
-0.064298898 0.009505054 0.38914537
-0.062972516 0.0094737411 0.3878634
-0.06167974 0.0094464468 0.38674593
-0.060428109 0.0094245672 0.38585019
-0.059190519 0.0094041014 0.38501227
-0.057979546 0.0093871653 0.38431889
-0.056791347 0.0093733286 0.38375244
-0.055611689 0.0093603833 0.38322243
-0.054438114 0.0093479594 0.38271376
-0.053274371 0.0093367454 0.38225466
-0.052122951 0.0093272645 0.38186651
-0.050982371 0.0093193585 0.38154283
-0.049853168 0.0093132295 0.3812919
-0.048736855 0.0093092863 0.38113049
-0.04762217 0.0093054818 0.38097471
-0.046521366 0.0093042739 0.38092524
-0.045434225 0.009305805 0.38098794
-0.044375405 0.0093133571 0.38129711
-0.043334756 0.0093252007 0.38178203
-0.042306636 0.009340426 0.38240537
-0.04128135 0.0093571059 0.38308826
-0.040254891 0.0093744267 0.38379738
-0.039230872 0.0093933074 0.38457036
-0.038205933 0.0094130561 0.3853789
-0.037178308 0.0094333021 0.38620779
-0.036153149 0.0094554387 0.38711408
-0.035126284 0.0094785206 0.38805908
-0.034105878 0.0095049161 0.38913974
-0.033088151 0.0095338738 0.39032528
-0.032070506 0.0095648877 0.39159504
-0.031058729 0.0095999707 0.39303136
-0.030068554 0.0096446304 0.39485976
-0.06694147 0.010688134 0.39152047
-0.065547101 0.0106444 0.38991848
-0.064212441 0.010609012 0.38862213
-0.062900379 0.01057617 0.3874191
-0.061618522 0.010547314 0.38636208
-0.060369357 0.010523099 0.38547504
-0.059146114 0.010502581 0.38472342
-0.057943452 0.010485006 0.38407964
-0.056755919 0.010469538 0.38351303
-0.055579033 0.010455461 0.38299739
-0.05440994 0.010442312 0.3825157
-0.05324826 0.010430072 0.38206732
-0.052101169 0.010420234 0.38170695
-0.05096532 0.01041227 0.38141522
-0.04983804 0.010405745 0.3811762
-0.048721366 0.01040119 0.38100937
-0.047613423 0.010398334 0.38090473
-0.046515651 0.010397617 0.38087845
-0.045434933 0.010400767 0.38099387
-0.044384647 0.010411214 0.38137653
-0.043353103 0.010426695 0.38194364
-0.042323347 0.010443423 0.38255641
-0.041300472 0.010462786 0.3832657
-0.040274777 0.010482476 0.38398698
-0.039249886 0.010503491 0.38475677
-0.038222734 0.010525101 0.38554835
-0.037197325 0.010548495 0.38640532
-0.036173765 0.01057387 0.38733482
-0.035150722 0.010601012 0.38832909
-0.03412902 0.010630351 0.38940382
-0.033108238 0.010661975 0.39056227
-0.032091528 0.010697177 0.39185172
-0.031078003 0.010736038 0.39327526
-0.03010807 0.010793459 0.39537868
-0.06681937 0.011791653 0.39080635
-0.065458693 0.011748997 0.38939258
-0.064134195 0.011711462 0.38814861
-0.062830105 0.011676392 0.38698629
-0.061562479 0.011646955 0.38601068
-0.060317241 0.011620753 0.38514227
-0.059101772 0.011599413 0.384435
-0.05790728 0.011581455 0.38383985
-0.056722816 0.011564846 0.38328937
-0.055549607 0.011549918 0.38279462
-0.05438032 0.01153522 0.38230747
-0.053224314 0.011522789 0.38189551
-0.052078608 0.011512114 0.38154167
-0.050947245 0.011504217 0.38127995
-0.049822405 0.011497478 0.38105661
-0.048711129 0.011493637 0.38092932
-0.047604423 0.011490723 0.38083273
-0.046510663 0.011490869 0.38083759
-0.045442324 0.011497456 0.38105586
-0.044400804 0.011511319 0.38151535
-0.043371562 0.011529149 0.38210627
-0.042343725 0.011548289 0.38274062
-0.041320361 0.011569701 0.38345027
-0.040295932 0.011591981 0.38418868
-0.039269254 0.01161485 0.38494661
-0.03824383 0.011639427 0.38576117
-0.037219156 0.011665706 0.38663211
-0.036195245 0.011693848 0.38756484
-0.035173479 0.011724493 0.3885805
-0.034152243 0.011757329 0.38966876
-0.033130407 0.011792178 0.39082375
-0.032114081 0.011831503 0.3921271
-0.031110544 0.011878571 0.39368704
-0.0301782 0.0119574 0.39629963
-0.068114422 0.01294737 0.39179593
-0.066708773 0.012893292 0.39015952
-0.065365851 0.012849697 0.38884029
-0.064051867 0.012810374 0.38765034
-0.062759802 0.012774119 0.38655326
-0.061499026 0.012743041 0.38561282
-0.060266126 0.012716705 0.38481587
-0.0590575 0.012694603 0.38414705
-0.057867441 0.012675726 0.3835758
-0.056689713 0.012658868 0.38306567
-0.055517916 0.012642694 0.38257623
-0.054352205 0.012627279 0.38210979
-0.053201858 0.012614873 0.38173437
-0.052058734 0.012603694 0.38139606
-0.050930154 0.012595629 0.38115203
-0.049809534 0.012589223 0.38095817
-0.048700459 0.012585512 0.38084587
-0.047596943 0.0125831 0.38077289
-0.046511814 0.01258555 0.38084701
-0.045453571 0.012595568 0.38115019
-0.044417724 0.01261244 0.38166073
-0.043393157 0.01263345 0.38229653
-0.042367827 0.012655325 0.38295847
-0.04134145 0.012678045 0.38364598
-0.040316172 0.012702355 0.38438162
-0.039289661 0.012727636 0.38514665
-0.03826772 0.012755907 0.38600215
-0.037241619 0.012784436 0.38686547
-0.03621944 0.01281611 0.38782391
-0.035195757 0.012849245 0.38882661
-0.034175947 0.012886013 0.38993922
-0.033156093 0.012925256 0.39112675
-0.032138471 0.012968155 0.39242488
-0.031147404 0.013025277 0.39415348
-0.067978151 0.014045072 0.39101207
-0.06661322 0.013994374 0.38960066
-0.065279141 0.013948534 0.38832447
-0.063972697 0.013907108 0.38717118
-0.062694155 0.013870388 0.3861489
-0.061443478 0.013838621 0.38526452
-0.060218323 0.013811542 0.38451064
-0.05901647 0.013788895 0.38388014
-0.057832014 0.013769527 0.38334095
-0.056656845 0.013751661 0.38284358
-0.055485267 0.013733977 0.38235125
-0.054326002 0.013718687 0.38192558
-0.053177316 0.013705493 0.38155827
-0.05204197 0.013695255 0.38127324
-0.05091475 0.013686761 0.38103676
-0.049795635 0.013680119 0.38085186
-0.048689529 0.013676834 0.3807604
-0.047592241 0.013675932 0.38073528
-0.046518773 0.013681992 0.38090399
-0.045468114 0.013695216 0.38127214
-0.04443606 0.013714833 0.38181829
-0.043413538 0.013738462 0.38247609
-0.042388562 0.013762521 0.3831459
-0.041362558 0.013787519 0.38384184
-0.040340252 0.013815154 0.38461122
-0.039315004 0.013843312 0.38539511
-0.038291503 0.013873734 0.38624203
-0.037265014 0.013904856 0.38710847
-0.036244586 0.013940225 0.38809317
-0.035221916 0.01397695 0.38911557
-0.034199353 0.014016128 0.39020628
-0.033181399 0.014059915 0.39142531
-0.032167811 0.014108689 0.39278314
-0.031195195 0.014179634 0.39475825
-0.069275275 0.015206768 0.39199394
-0.067862436 0.015142858 0.3903465
-0.066515997 0.015091864 0.38903201
-0.065198913 0.015045903 0.38784721
-0.063900746 0.015002784 0.38673574
-0.06263411 0.014965672 0.38577908
-0.061389901 0.014932679 0.38492858
-0.060173046 0.01490525 0.38422152
-0.05897662 0.014881951 0.38362095
-0.057795636 0.014861735 0.38309982
-0.056621525 0.014842536 0.38260493
-0.055457421 0.014825251 0.38215935
-0.054299828 0.014809044 0.38174158
-0.05315518 0.014795772 0.38139945
-0.052022856 0.014785443 0.3811332
-0.050898228 0.014776905 0.38091311
-0.049783289 0.014770866 0.38075745
-0.048680067 0.014768111 0.3806864
-0.047590345 0.014769418 0.38072011
-0.046525624 0.014778727 0.38096008
-0.045486707 0.014796881 0.38142803
-0.044460133 0.014820045 0.38202515
-0.043435775 0.014845138 0.38267201
-0.04241151 0.014871567 0.38335329
-0.041387979 0.014899672 0.38407776
-0.040364306 0.014929264 0.38484055
-0.039340746 0.014960565 0.38564742
-0.038316343 0.014993351 0.38649258
-0.037291508 0.015027921 0.3873837
-0.036269985 0.015065993 0.38836512
-0.035248574 0.015106531 0.38941008
-0.03422353 0.015148121 0.39048216
-0.033209369 0.015197508 0.39175525
-0.032207463 0.015256167 0.39326733
-0.031279866 0.015355571 0.39582974
-0.069119155 0.016296387 0.39111054
-0.067751288 0.016237913 0.38970718
-0.066423871 0.016187329 0.38849318
-0.065115467 0.016139733 0.38735086
-0.063831151 0.016096551 0.38631454
-0.06257201 0.016058303 0.38539657
-0.061336286 0.016024796 0.38459241
-0.060127497 0.015997224 0.38393068
-0.058936618 0.015973477 0.38336074
-0.057759125 0.01595252 0.3828578
-0.05658849 0.015932681 0.38238168
-0.055428322 0.015915062 0.38195884
-0.054275211 0.0158988 0.38156852
-0.053134561 0.015885592 0.38125151
-0.052004512 0.015875062 0.38099882
-0.050883677 0.015866954 0.38080421
-0.049772445 0.015861548 0.38067451
-0.048672687 0.015859639 0.38062871
-0.047594231 0.015864745 0.38075119
-0.046539396 0.015878147 0.38107285
-0.045510828 0.015901374 0.3816303
-0.044483248 0.0159261 0.38222376
-0.043458235 0.015953023 0.38286987
-0.042435534 0.015982214 0.38357046
-0.041414257 0.016013512 0.38432163
-0.040390864 0.016045686 0.38509375
-0.039367884 0.016079839 0.38591346
-0.038342126 0.016114805 0.38675264
-0.037317667 0.016152423 0.38765544
-0.036297031 0.016194059 0.38865471
-0.035276346 0.016238319 0.38971692
-0.034254715 0.016285028 0.39083797
-0.033239443 0.016338032 0.39211002
-0.032253608 0.016409731 0.39383078
-0.070420407 0.01746426 0.39209807
-0.068996869 0.017389454 0.39041856
-0.067655161 0.017333141 0.38915423
-0.066338249 0.017281393 0.38799241
-0.06503585 0.017231721 0.38687724
-0.063761674 0.017187929 0.38589403
-0.062508024 0.017148217 0.38500246
-0.061284564 0.017115509 0.38426811
-0.060083523 0.017087976 0.38364992
-0.058897901 0.017063878 0.38310891
-0.05772236 0.01704184 0.38261411
-0.056555633 0.017021598 0.38215965
-0.055394791 0.017002363 0.38172778
-0.054248985 0.016987056 0.38138413
-0.053111505 0.01697378 0.38108608
-0.051987741 0.016964421 0.38087595
-0.050871946 0.016957315 0.38071641
-0.049763177 0.016952291 0.38060361
-0.048668772 0.016952043 0.38059807
-0.047599893 0.016960882 0.38079649
-0.046557125 0.016979657 0.38121802
-0.045531057 0.017005576 0.38179994
-0.04450633 0.017033286 0.38242209
-0.043480959 0.017062148 0.38307008
-0.042461377 0.017094839 0.38380405
-0.041440785 0.017128859 0.3845678
-0.040416908 0.017163344 0.38534206
-0.039393216 0.017199855 0.3861618
-0.038367216 0.017237445 0.38700575
-0.037345581 0.017279299 0.38794541
-0.036326043 0.017324729 0.38896537
-0.035305478 0.017372536 0.39003873
-0.03428771 0.017424902 0.3912144
-0.033281866 0.017487083 0.39261046
-0.032317489 0.017576179 0.39461079
-0.070263751 0.018549629 0.39122581
-0.0688833 0.018480884 0.38977593
-0.067551933 0.018423256 0.38856047
-0.066248842 0.018371528 0.3874695
-0.064965419 0.018323582 0.38645828
-0.063696243 0.018278053 0.38549805
-0.062453754 0.018238707 0.38466823
-0.061237678 0.018205795 0.38397411
-0.060042642 0.018178048 0.38338888
-0.058859728 0.018153001 0.3828606
-0.057688721 0.01813074 0.38239112
-0.056525081 0.018109977 0.38195321
-0.055367932 0.018090513 0.38154268
-0.054225724 0.018075241 0.38122061
-0.05309251 0.0180624 0.38094977
-0.051971246 0.01805317 0.3807551
-0.050860535 0.018047286 0.38063103
-0.049757332 0.018043868 0.38055891
-0.048674032 0.018047674 0.3806392
-0.047615904 0.018061206 0.38092458
-0.046579093 0.018083647 0.3813979
-0.045553669 0.0181117 0.38198954
-0.044531096 0.018142298 0.38263488
-0.04350929 0.018174767 0.38331968
-0.042486552 0.018208522 0.38403159
-0.041466851 0.018245416 0.3848097
-0.040443424 0.018282643 0.38559487
-0.039417889 0.018320991 0.38640365
-0.038396664 0.018363621 0.38730276
-0.037375197 0.018408678 0.38825306
-0.036355719 0.018457519 0.38928312
-0.035337694 0.018510221 0.39039466
-0.034321636 0.018567443 0.3916015
-0.03332762 0.018640872 0.39315021
-0.03243449 0.018777862 0.39603943
-0.071551077 0.019718802 0.39211971
-0.070121646 0.019634061 0.39043459
-0.068777166 0.019570738 0.38917539
-0.067457266 0.019512434 0.38801596
-0.066163771 0.019459933 0.38697195
-0.06488695 0.019410625 0.38599145
-0.063627377 0.019364854 0.38508126
-0.062399138 0.019327166 0.38433182
-0.061192673 0.019294987 0.38369191
-0.060001835 0.019266644 0.38312832
-0.058823284 0.019241262 0.38262355
-0.05765428 0.019218093 0.38216284
-0.056494601 0.019197194 0.38174725
-0.055342495 0.019178092 0.38136742
-0.054203711 0.019162929 0.38106585
-0.053077217 0.019151574 0.38084006
-0.05195836 0.019142553 0.38066068
-0.050849482 0.019136902 0.3805483
-0.049751751 0.019135289 0.38051623
-0.048679676 0.019143691 0.38068333
-0.047633499 0.019162903 0.38106534
-0.046603709 0.019189764 0.38159949
-0.045579128 0.019220116 0.38220304
-0.044556219 0.019252688 0.38285077
-0.043535076 0.019287692 0.38354686
-0.042514041 0.019324565 0.38428009
-0.041494045 0.019363888 0.38506204
-0.040470745 0.019403782 0.38585538
-0.039447654 0.019446027 0.38669541
-0.038427521 0.01949222 0.38761401
-0.037406266 0.019540586 0.38857579
-0.036388069 0.019593576 0.38962954
-0.035369892 0.019649941 0.39075038
-0.034361023 0.019715341 0.39205089
-0.03338436 0.019804282 0.39381954
-0.071362965 0.020790786 0.39108878
-0.06999328 0.02071801 0.38971984
-0.068667933 0.020656208 0.38855731
-0.067364924 0.020599192 0.38748479
-0.066079073 0.020545594 0.38647658
-0.064816929 0.020497661 0.38557494
-0.063571014 0.020453284 0.38474014
-0.06234533 0.020413958 0.38400042
-0.061147049 0.020382348 0.38340583
-0.059961215 0.020353807 0.38286895
-0.058786865 0.020328168 0.38238665
-0.057619341 0.020303957 0.38193125
-0.056464739 0.020283451 0.38154548
-0.055317026 0.020264652 0.38119188
-0.054183736 0.020250486 0.38092542
-0.053061627 0.020240001 0.38072819
-0.05194775 0.020232281 0.38058296
-0.050843548 0.020228079 0.38050389
-0.049754553 0.020229872 0.38053766
-0.048691802 0.020242659 0.38077816
-0.047652937 0.020266192 0.38122085
-0.046628986 0.020297322 0.38180643
-0.045604996 0.020329937 0.38241994
-0.044581536 0.020364406 0.38306829
-0.043563236 0.020403035 0.38379493
-0.042541571 0.020442054 0.38452891
-0.041521989 0.020484181 0.38532135
-0.040501237 0.020528024 0.38614607
-0.039480101 0.020574138 0.38701349
-0.038461231 0.020624138 0.38795406
-0.037437387 0.020674378 0.38889909
-0.036421761 0.020732388 0.3899903
-0.035405096 0.020793468 0.39113927
-0.034410268 0.020871803 0.39261279
-0.033465236 0.020986672 0.39477357
-0.072643325 0.021961937 0.39193335
-0.071219742 0.021870628 0.39030388
-0.069875926 0.021801289 0.38906643
-0.068566799 0.021740694 0.38798505
-0.067279264 0.021685053 0.38699207
-0.065998949 0.021629907 0.38600796
-0.064746164 0.021582054 0.38515398
-0.063511811 0.021538788 0.38438186
-0.062296439 0.021500541 0.38369927
-0.061102834 0.021468563 0.38312861
-0.059919845 0.021439211 0.38260478
-0.058751091 0.021413948 0.38215396
-0.057589535 0.021390399 0.38173369
-0.05643528 0.021368697 0.3813464
-0.055296015 0.021351926 0.3810471
-0.054166529 0.021338329 0.38080445
-0.053048413 0.021328744 0.38063338
-0.051939465 0.021322517 0.38052225
-0.050838873 0.021319527 0.3804689
-0.049763776 0.021327334 0.3806082
-0.048707195 0.021343602 0.38089854
-0.047674943 0.021371527 0.38139689
-0.046653088 0.021405535 0.38200378
-0.045633107 0.021442063 0.38265568
-0.044611186 0.021479459 0.38332307
-0.043591797 0.021520002 0.38404658
-0.042570546 0.021561705 0.38479081
-0.04155359 0.021607868 0.38561463
-0.040533748 0.021655016 0.38645604
-0.039513152 0.021704409 0.38733751
-0.038494416 0.021757713 0.38828877
-0.037475705 0.021814216 0.38929713
-0.03645882 0.021875292 0.39038709
-0.035445597 0.021942513 0.39158672
-0.034461983 0.022033071 0.39320284
-0.033675689 0.0222602 0.3972562
-0.072477981 0.023035638 0.39104128
-0.071096353 0.022952367 0.3896277
-0.069768295 0.022884 0.38846713
-0.068470895 0.022823632 0.38744235
-0.067195497 0.022768721 0.38651022
-0.065926351 0.022714121 0.38558337
-0.064682029 0.022666352 0.38477245
-0.06345503 0.022623099 0.38403821
-0.062247626 0.022585422 0.38339862
-0.061060388 0.022553837 0.38286245
-0.059882328 0.022524545 0.38236523
-0.058714937 0.022498246 0.38191879
-0.05755775 0.02247493 0.38152298
-0.056411825 0.022455193 0.38118792
-0.055275183 0.02243844 0.38090354
-0.054152206 0.02242667 0.38070375
-0.053038254 0.022418231 0.38056049
-0.051933032 0.022413203 0.38047513
-0.050842233 0.022414317 0.38049406
-0.049775843 0.022426479 0.3807005
-0.048730861 0.02244905 0.38108364
-0.047702551 0.022480514 0.38161775
-0.046681993 0.022517197 0.38224047
-0.045661632 0.022555746 0.38289487
-0.044641651 0.022596393 0.38358486
-0.043622717 0.022639638 0.38431898
-0.042605024 0.022685792 0.38510245
-0.041585952 0.022733653 0.38591492
-0.040567532 0.022784503 0.38677815
-0.039547984 0.022837568 0.38767892
-0.038534138 0.022897096 0.38868946
-0.03751456 0.022956671 0.38970077
-0.03649807 0.023021858 0.39080736
-0.035496615 0.023100972 0.39215034
-0.034535632 0.023212474 0.39404315
-0.07374832 0.024207463 0.3918204
-0.072335511 0.024111837 0.39027259
-0.070987955 0.02403529 0.38903362
-0.069672063 0.023967188 0.38793132
-0.068383567 0.023906451 0.38694823
-0.067114763 0.0238507 0.38604584
-0.065854929 0.023796318 0.38516563
-0.064618766 0.023748778 0.38439614
-0.063404232 0.023707669 0.38373077
-0.062203225 0.023670254 0.38312516
-0.061018508 0.0236378 0.38259986
-0.05984563 0.023608826 0.38213089
-0.058682278 0.023582598 0.38170636
-0.057529081 0.023559529 0.38133296
-0.056387987 0.023540616 0.38102683
-0.055258822 0.023526033 0.3807908
-0.054138776 0.023514822 0.38060933
-0.053026177 0.02350645 0.38047382
-0.051926553 0.023503598 0.38042766
-0.05084784 0.023510292 0.38053602
-0.049792223 0.023528192 0.38082576
-0.048756573 0.023556545 0.38128468
-0.047733445 0.023592392 0.38186488
-0.046714664 0.023632124 0.38250798
-0.045694165 0.023672881 0.38316765
-0.044674616 0.023716155 0.3838681
-0.043656129 0.023762196 0.38461334
-0.042639256 0.023811532 0.38541189
-0.041620705 0.023862537 0.38623744
-0.040603135 0.023916915 0.38711759
-0.039586566 0.023974963 0.38805714
-0.038572673 0.024038041 0.38907814
-0.037554309 0.024102019 0.39011368
-0.036538426 0.024171574 0.39123949
-0.035551827 0.024265533 0.39276031
-0.034648858 0.024424607 0.39533505
-0.073578402 0.025275024 0.39091763
-0.072207808 0.02518877 0.38958359
-0.070879802 0.025114892 0.38844094
-0.069578715 0.025048336 0.38741156
-0.06829907 0.024987465 0.38647008
-0.067034885 0.02493033 0.38558641
-0.065789632 0.024878433 0.38478374
-0.064559802 0.024830693 0.38404536
-0.063351177 0.024789592 0.38340968
-0.062158942 0.024753561 0.38285241
-0.060977735 0.024720704 0.38234422
-0.05981103 0.024692627 0.38190997
-0.058651906 0.024666689 0.3815088
-0.057500962 0.02464327 0.38114658
-0.056366414 0.024626104 0.38088107
-0.055243023 0.024613228 0.38068193
-0.054126177 0.024602808 0.38052076
-0.053019941 0.024596881 0.38042909
-0.051926889 0.024596948 0.38043013
-0.050859395 0.024609385 0.38062251
-0.049811572 0.024632096 0.38097376
-0.048784889 0.024666518 0.38150615
-0.047763459 0.024705237 0.38210499
-0.046743389 0.024746502 0.38274321
-0.045725718 0.024791053 0.38343227
-0.044708807 0.024838226 0.38416189
-0.043691691 0.024887674 0.38492665
-0.042675681 0.024940332 0.38574111
-0.041657642 0.024994586 0.38658023
-0.040642854 0.025053814 0.38749629
-0.039628685 0.025116771 0.38847002
-0.038612682 0.025182184 0.38948172
-0.037595529 0.025250729 0.39054188
-0.036591902 0.025332855 0.39181209
-0.035622895 0.025444925 0.39354542
-0.074837148 0.02644621 0.39162624
-0.073430419 0.026345266 0.39013141
-0.072091855 0.026266024 0.38895798
-0.070781246 0.026194636 0.38790083
-0.069489203 0.02612794 0.38691318
-0.0682147 0.02606578 0.38599268
-0.066959493 0.02600906 0.38515276
-0.065723859 0.025958164 0.38439906
-0.064504139 0.02591192 0.38371426
-0.06330274 0.025871554 0.38311651
-0.062115986 0.025835853 0.38258782
-0.060942218 0.025804363 0.3821215
-0.059777841 0.025775766 0.38169804
-0.058622822 0.025750211 0.38131961
-0.057479598 0.025728963 0.38100496
-0.056349833 0.02571303 0.38076901
-0.055228196 0.025700251 0.38057977
-0.054113969 0.02569047 0.38043493
-0.053013712 0.025687056 0.38038439
-0.051932689 0.025693016 0.38047263
-0.050873134 0.02571008 0.38072532
-0.049834963 0.025738938 0.38115266
-0.048814744 0.025778571 0.38173959
-0.047795106 0.025820345 0.38235816
-0.046776995 0.025864927 0.38301837
-0.045760427 0.025912531 0.38372332
-0.044745579 0.025963485 0.38447785
-0.043730974 0.026017163 0.38527274
-0.042715531 0.026073117 0.38610134
-0.041696858 0.026130032 0.38694414
-0.040685046 0.026194483 0.38789856
-0.039671056 0.026261121 0.38888538
-0.038655024 0.026330234 0.38990882
-0.037641443 0.026405193 0.39101884
-0.036650032 0.026500793 0.39243454
-0.035724018 0.026651252 0.39466259
-0.076167457 0.027645966 0.39268282
-0.074658848 0.027505893 0.39069322
-0.07329987 0.027417507 0.38943779
-0.071976282 0.027339827 0.38833442
-0.070685402 0.027272321 0.38737556
-0.06940455 0.027206583 0.38644183
-0.068134844 0.027143149 0.38554081
-0.066891029 0.027088102 0.38475892
-0.065661751 0.027037192 0.3840358
-0.06445159 0.026992545 0.38340163
-0.063257523 0.026953205 0.38284287
-0.062077709 0.026918652 0.38235205
-0.060907107 0.026886921 0.38190135
-0.059745364 0.026858008 0.38149068
-0.058600042 0.026835533 0.38117144
-0.057461035 0.02681515 0.38088191
-0.056333337 0.026799355 0.38065755
-0.055217419 0.02678865 0.3805055
-0.054109786 0.026781611 0.38040555
-0.053011883 0.026779199 0.38037127
-0.05194167 0.026790967 0.38053843
-0.050893493 0.026814852 0.38087767
-0.049863204 0.026849419 0.38136867
-0.048846949 0.026893264 0.38199145
-0.047827911 0.026937557 0.3826206
-0.046814177 0.026986996 0.38332281
-0.04579784 0.02703728 0.38403705
-0.044784218 0.027091688 0.38480985
-0.043767747 0.027147083 0.38559669
-0.042754721 0.02720755 0.38645557
-0.041739762 0.027269976 0.38734227
-0.040727559 0.027337676 0.38830388
-0.039714824 0.027408823 0.38931444
-0.03870124 0.027483489 0.39037499
-0.037694011 0.027567262 0.39156491
-0.036718417 0.027680036 0.39316675
-0.035992462 0.027994139 0.39762825
-0.075893231 0.028670775 0.39126903
-0.074509434 0.028571285 0.38991129
-0.073180087 0.028489957 0.3888014
-0.07187666 0.028416354 0.38779694
-0.070593528 0.028348582 0.38687205
-0.06932313 0.028283836 0.38598847
-0.068062291 0.028220948 0.38513026
-0.066823356 0.028165216 0.38436967
-0.065605402 0.028116602 0.38370624
-0.064403251 0.028073212 0.3831141
-0.063213691 0.028033899 0.3825776
-0.062040798 0.028000714 0.38212472
-0.060873888 0.027969085 0.38169307
-0.059720255 0.027942505 0.38133034
-0.05857579 0.027919302 0.38101369
-0.05744563 0.027902164 0.3807798
-0.0563218 0.027887493 0.38057959
-0.055209193 0.02787791 0.38044882
-0.054105416 0.027872488 0.38037482
-0.053021964 0.027877528 0.3804436
-0.051962432 0.02789562 0.38069052
-0.050923645 0.027925871 0.38110334
-0.049899001 0.027965374 0.38164243
-0.048879083 0.028009363 0.38224274
-0.04786627 0.028059537 0.38292748
-0.046853118 0.028111869 0.38364166
-0.045837775 0.02816538 0.38437191
-0.044824731 0.02822298 0.38515797
-0.04380925 0.028281922 0.38596234
-0.04279596 0.028345376 0.3868283
-0.041782863 0.028412346 0.38774225
-0.040771987 0.028484538 0.38872746
-0.039758563 0.028558968 0.38974318
-0.038746301 0.028638572 0.39082953
-0.03775388 0.028738027 0.39218682
-0.036809471 0.028881278 0.39414173
-0.077165142 0.029852208 0.39201871
-0.075731494 0.029731624 0.39043519
-0.07438089 0.029640505 0.38923863
-0.073073789 0.029564204 0.38823664
-0.071781963 0.029491816 0.38728604
-0.070504703 0.029423224 0.38638529
-0.069239914 0.029357722 0.38552514
-0.067991719 0.029297244 0.38473094
-0.066761956 0.02924284 0.38401648
-0.065551221 0.029195081 0.38338932
-0.064355142 0.029152332 0.38282794
-0.063174456 0.029115183 0.3823401
-0.062003013 0.02908106 0.381892
-0.060844269 0.029051768 0.38150734
-0.05969527 0.029026141 0.38117081
-0.05855792 0.029005326 0.38089746
-0.057429984 0.028988468 0.38067609
-0.056310952 0.028975539 0.38050631
-0.055201903 0.028967336 0.38039857
-0.054105718 0.028965687 0.38037694
-0.053034395 0.028977556 0.3805328
-0.05198618 0.029002815 0.3808645
-0.050957754 0.029040441 0.38135859
-0.04993489 0.02908296 0.38191694
-0.048918344 0.029131148 0.38254976
-0.047905743 0.029183958 0.38324326
-0.046891946 0.029238509 0.38395962
-0.045880277 0.029297045 0.38472831
-0.044868216 0.029358216 0.3855316
-0.043851834 0.029419586 0.38633752
-0.042840634 0.02948771 0.38723212
-0.041826181 0.029557168 0.38814425
-0.040817134 0.029634356 0.38915789
-0.039805006 0.029713597 0.39019847
-0.038797483 0.029800966 0.3913458
-0.037824936 0.029921217 0.39292493
-0.037026927 0.030191189 0.39647019
-0.078766935 0.031166771 0.39439857
-0.076966375 0.030898912 0.39100894
-0.075593852 0.030797495 0.38972557
-0.074266121 0.030711552 0.38863802
-0.072967492 0.030635208 0.38767192
-0.071686164 0.030563867 0.38676915
-0.070420064 0.030496879 0.38592145
-0.069165125 0.030432656 0.38510874
-0.067925051 0.03037299 0.3843537
-0.066704795 0.030320361 0.3836877
-0.065501735 0.030273909 0.38309988
-0.064311959 0.030232118 0.38257104
-0.063135259 0.030195124 0.38210291
-0.061969753 0.030162269 0.38168713
-0.060817931 0.030135011 0.3813422
-0.059671212 0.030109327 0.38101718
-0.058540054 0.030090682 0.38078123
-0.057415038 0.030074544 0.38057703
-0.056300867 0.03006357 0.38043815
-0.055195432 0.030056918 0.38035399
-0.054108728 0.030060405 0.38039809
-0.05305016 0.030079987 0.3806459
-0.052014679 0.03011376 0.3810733
-0.050994474 0.030158022 0.3816334
-0.049972765 0.03020332 0.38220662
-0.048957888 0.030254876 0.38285902
-0.04794528 0.030310234 0.38355955
-0.046934836 0.030369598 0.38431078
-0.045923185 0.030431027 0.38508812
-0.044910412 0.030494723 0.38589418
-0.043897092 0.030561266 0.38673624
-0.042886272 0.030633053 0.38764465
-0.041874588 0.030708032 0.38859347
-0.040863607 0.03078765 0.38960099
-0.039850727 0.030870281 0.39064664
-0.038861439 0.03097651 0.3919909
-0.0379159 0.031124992 0.39386988
-0.078195512 0.032065783 0.39153737
-0.076804787 0.031955276 0.39018801
-0.075466625 0.031863686 0.38906965
-0.074156307 0.031781275 0.38806337
-0.072867416 0.03170567 0.38714021
-0.071594603 0.031634826 0.38627517
-0.070335984 0.031568117 0.38546064
-0.069090992 0.031505492 0.38469595
-0.067863986 0.031449165 0.38400817
-0.066649131 0.031396698 0.38336754
-0.065452382 0.031351142 0.38281128
-0.064270444 0.03131124 0.38232407
-0.063101389 0.031276338 0.3818979
-0.061938882 0.031243507 0.381497
-0.060788713 0.031215826 0.38115901
-0.059652731 0.031194549 0.38089919
-0.058524255 0.031176472 0.38067847
-0.057402804 0.031161522 0.38049594
-0.056291539 0.031151628 0.38037512
-0.055194464 0.03114935 0.38034731
-0.054122243 0.031161292 0.3804931
-0.053075507 0.0311887 0.38082778
-0.052048743 0.031229246 0.38132286
-0.051029112 0.031275906 0.38189262
-0.050014164 0.031327553 0.38252324
-0.048999451 0.03138167 0.38318405
-0.047990557 0.031442087 0.38392177
-0.046979044 0.031503592 0.38467276
-0.045967162 0.031567812 0.38545689
-0.04495766 0.031636871 0.38630015
-0.043943729 0.031706233 0.3871471
-0.042934682 0.031782817 0.38808221
-0.041923285 0.031861696 0.38904536
-0.040911827 0.031944852 0.39006072
-0.039903961 0.032035574 0.3911685
-0.038932547 0.032161672 0.39270818
-0.038095806 0.032409865 0.39573875
-0.079460211 0.033249307 0.3922264
-0.078013167 0.033113502 0.39062434
-0.07666111 0.033014636 0.38945809
-0.07534942 0.032930486 0.3884654
-0.074051805 0.032850049 0.3875165
-0.072773032 0.03277564 0.38663873
-0.07150998 0.032706112 0.38581857
-0.070259608 0.03264029 0.3850421
-0.069027185 0.032580834 0.3843407
-0.067804627 0.032524172 0.3836723
-0.066597536 0.03247318 0.38307077
-0.065408863 0.032429602 0.38255671
-0.06423074 0.032389861 0.38208789
-0.063066475 0.032355845 0.38168663
-0.061910033 0.032324709 0.38131931
-0.060767021 0.032299589 0.38102299
-0.059633911 0.032278907 0.380779
-0.058510009 0.03226253 0.38058582
-0.0573938 0.032249849 0.38043624
-0.056289423 0.032243457 0.38036081
-0.055202927 0.032247256 0.38040563
-0.054143276 0.032267205 0.38064098
-0.053107534 0.032302521 0.38105759
-0.052086689 0.032348573 0.38160086
-0.051072236 0.032400664 0.38221535
-0.050058164 0.032455292 0.38285977
-0.049047243 0.032514464 0.38355777
-0.048037428 0.032577109 0.38429675
-0.04702609 0.032641642 0.38505802
-0.046014253 0.032708928 0.38585177
-0.045004256 0.032780878 0.38670054
-0.043992363 0.032855056 0.38757557
-0.0429851 0.032936636 0.38853794
-0.041972801 0.033018604 0.38950488
-0.040963851 0.033107769 0.39055672
-0.039973758 0.033217631 0.39185271
-0.039018851 0.033363946 0.39357871
-0.079226032 0.034275092 0.39107046
-0.07786072 0.034169093 0.38986102
-0.076538399 0.034079142 0.38883469
-0.075239822 0.033997253 0.38790038
-0.073951431 0.033917576 0.38699126
-0.072679974 0.033843346 0.38614434
-0.071425177 0.033774696 0.38536105
-0.070188574 0.033712622 0.38465279
-0.068961523 0.033653226 0.38397509
-0.067750931 0.033600058 0.38336846
-0.066550255 0.033550128 0.38279879
-0.065364242 0.03350604 0.38229576
-0.064194426 0.033468887 0.38187185
-0.063033618 0.033435225 0.38148776
-0.061885361 0.033407141 0.38116735
-0.060746863 0.03338341 0.3808966
-0.059617341 0.033363834 0.3806732
-0.058496792 0.033348639 0.38049984
-0.05738702 0.033339124 0.3803913
-0.056291644 0.033337768 0.38037583
-0.055218805 0.033349972 0.38051504
-0.054172587 0.033379067 0.38084704
-0.053147823 0.033422858 0.38134667
-0.052129649 0.033472721 0.3819156
-0.05111485 0.033526946 0.38253427
-0.050106548 0.033587907 0.38322982
-0.049094774 0.033649229 0.38392949
-0.048086207 0.033715617 0.38468698
-0.047074568 0.033782925 0.38545495
-0.04606102 0.033852074 0.38624394
-0.045054104 0.033929635 0.38712886
-0.044044461 0.034009013 0.38803455
-0.043036178 0.034093596 0.38899961
-0.042027093 0.034182038 0.39000872
-0.041025147 0.034281287 0.39114115
-0.040050823 0.034409862 0.39260814
-0.039207306 0.034661531 0.39547962
-0.080459349 0.035447124 0.39160359
-0.079062119 0.035325628 0.39026135
-0.077724949 0.035227854 0.3891812
-0.076422133 0.035143025 0.38824403
-0.075135991 0.035063464 0.38736507
-0.073855609 0.034984235 0.38648981
-0.072590575 0.034909971 0.38566935
-0.07135202 0.034846336 0.38496634
-0.070120513 0.03478419 0.38427982
-0.068900391 0.0347258 0.38363472
-0.067694709 0.034672901 0.38305032
-0.066504404 0.03462626 0.38253507
-0.065324098 0.034583345 0.38206095
-0.064158887 0.034547091 0.38166043
-0.063005894 0.034516271 0.38131997
-0.061860021 0.034488332 0.38101128
