# .PCD v0.7 - Point Cloud Data file format
VERSION 0.7
FIELDS x y z
SIZE 4 4 4
TYPE F F F
COUNT 1 1 1
WIDTH 1316
HEIGHT 1
VIEWPOINT 0 0 0 1 0 0 0
POINTS 1316
DATA ascii
-0.051840808 0.0013763047 0.31930044
-0.050953556 0.0013771232 0.31949034
-0.050070122 0.0013780767 0.31971157
-0.04918946 0.0013791437 0.3199591
-0.048309717 0.0013802776 0.32022217
-0.04742853 0.0013814134 0.32048568
-0.046545886 0.001382551 0.32074961
-0.045661792 0.0013836906 0.32101399
-0.044799495 0.0013855514 0.32144567
-0.043931048 0.0013872962 0.32185048
-0.043060414 0.0013890456 0.32225633
-0.042186011 0.0013907476 0.32265118
-0.041306369 0.0013923496 0.32302284
-0.040424705 0.0013939553 0.32339537
-0.039553579 0.0013960088 0.32387176
-0.038683936 0.0013982145 0.3243835
-0.037815556 0.0014005761 0.32493138
-0.03694424 0.0014029457 0.32548115
-0.036069963 0.0014053233 0.32603273
-0.035192724 0.0014077091 0.32658622
-0.034312505 0.0014101029 0.32714158
-0.033434533 0.0014127268 0.32775033
-0.032571275 0.0014161424 0.32854274
-0.031703833 0.0014195747 0.32933903
-0.030809071 0.001421957 0.32989174
-0.029915715 0.0014245579 0.33049512
-0.029042842 0.0014283365 0.33137175
-0.028172744 0.0014325124 0.33234057
-0.027299421 0.0014368116 0.33333796
-0.026412047 0.0014406572 0.33423012
-0.025528755 0.0014450239 0.3352432
-0.024640577 0.0014494457 0.33626905
-0.023732796 0.0014530283 0.33710021
-0.022854522 0.0014587994 0.33843908
-0.021968506 0.0014645671 0.3397772
-0.021059886 0.0014692943 0.3408739
-0.020171538 0.0014759662 0.34242177
-0.019278625 0.0014829711 0.34404689
-0.018386047 0.0014907606 0.34585404
-0.017486487 0.0014988417 0.34772885
-0.016588105 0.0015080095 0.34985575
-0.015684433 0.0015178485 0.35213837
-0.014814767 0.0015325621 0.35555193
-0.013936056 0.0015484506 0.35923803
-0.10938916 0.0024974693 0.34764531
-0.10684756 0.0024619254 0.34269762
-0.10505628 0.0024431692 0.34008679
-0.10334967 0.0024260487 0.33770362
-0.10177778 0.002411796 0.33571965
-0.1003442 0.0024005792 0.33415827
-0.098917603 0.0023893141 0.33259019
-0.097532146 0.0023788328 0.33113122
-0.096274205 0.0023712858 0.33008069
-0.095042296 0.0023642362 0.32909939
-0.093819916 0.0023572843 0.32813168
-0.09264297 0.0023513446 0.32730487
-0.091503099 0.0023462332 0.3265934
-0.09035641 0.0023408395 0.32584259
-0.089214981 0.0023354706 0.32509524
-0.088104218 0.0023307994 0.32444501
-0.087021217 0.0023267705 0.32388419
-0.085939445 0.0023226875 0.32331586
-0.084861457 0.0023186191 0.32274953
-0.083790891 0.0023146656 0.3221992
-0.082757115 0.0023116514 0.32177961
-0.081720628 0.0023084923 0.32133988
-0.080685683 0.0023053051 0.32089624
-0.079669952 0.0023025998 0.32051966
-0.078690834 0.0023009016 0.32028326
-0.077710271 0.0022991204 0.32003534
-0.076727465 0.0022972294 0.31977209
-0.075742602 0.0022952303 0.31949383
-0.074759126 0.0022932247 0.31921464
-0.073804297 0.0022920589 0.31905237
-0.072845086 0.0022907259 0.31886682
-0.071883865 0.0022892952 0.31866765
-0.07092385 0.0022878663 0.31846875
-0.069981284 0.0022869699 0.318344
-0.069050588 0.0022864433 0.31827068
-0.068120323 0.0022859168 0.3181974
-0.067190491 0.0022853909 0.31812418
-0.066261075 0.0022848647 0.31805095
-0.065335363 0.0022844533 0.31799367
-0.064411737 0.002284104 0.31794506
-0.063498631 0.0022841233 0.31794775
-0.062589899 0.0022843028 0.31797275
-0.061681025 0.0022844824 0.31799772
-0.060772009 0.0022846621 0.31802273
-0.059862845 0.0022848414 0.3180477
-0.058954008 0.0022850391 0.31807521
-0.058059618 0.0022858118 0.31818277
-0.057168212 0.0022867285 0.31831038
-0.05627609 0.0022876458 0.31843808
-0.055386733 0.002288708 0.31858593
-0.054503579 0.0022900663 0.318775
-0.053619374 0.0022914263 0.3189643
-0.052734118 0.0022927877 0.31915382
-0.051847808 0.0022941509 0.31934357
-0.050960448 0.0022955157 0.31953356
-0.050075237 0.0022970291 0.31974423
-0.049196813 0.0022989165 0.32000694
-0.048316944 0.002300807 0.32027009
-0.047435634 0.0023027007 0.32053369
-0.046552867 0.0023045973 0.32079771
-0.045668643 0.002306497 0.32106215
-0.044801671 0.0023093645 0.32146129
-0.043933187 0.002312273 0.32186615
-0.043062512 0.0023151888 0.32227203
-0.042189639 0.0023181122 0.32267895
-0.041312616 0.0023209336 0.32307169
-0.040431272 0.0023236363 0.32344791
-0.039561514 0.0023271479 0.32393673
-0.038695812 0.0023310729 0.3244831
-0.037827183 0.0023350113 0.32503131
-0.036955617 0.0023389631 0.3255814
-0.036081094 0.0023429282 0.32613334
-0.03520016 0.0023466775 0.32665521
-0.034315873 0.0023504023 0.32717371
-0.033447035 0.0023554249 0.32787287
-0.032583605 0.0023611309 0.32866713
-0.031711396 0.0023665221 0.32941759
-0.030815149 0.0023703962 0.32995683
-0.029930238 0.0023754155 0.33065554
-0.029052796 0.0023813767 0.33148533
-0.028185384 0.0023885919 0.33248967
-0.027303362 0.0023950317 0.33338609
-0.026416102 0.0024014639 0.33428144
-0.025542667 0.0024096856 0.33542588
-0.024650246 0.0024166908 0.33640102
-0.023740664 0.0024225167 0.33721197
-0.022866363 0.0024325917 0.3386144
-0.02197702 0.002441891 0.33990887
-0.021069076 0.0024498927 0.34102267
-0.020176295 0.002460524 0.34250253
-0.019287523 0.0024727595 0.34420571
-0.018396003 0.0024859465 0.34604132
-0.017495956 0.0024994225 0.34791717
-0.016592326 0.0025139889 0.3499448
-0.015700322 0.0025323099 0.35249507
-0.014832645 0.0025573527 0.35598099
-0.013958545 0.0025849158 0.35981777
-0.10889947 0.0034808049 0.34608904
-0.10663284 0.0034397691 0.34200895
-0.10485449 0.0034138674 0.33943358
-0.10317746 0.0033908086 0.33714089
-0.10166266 0.0033726946 0.33533987
-0.10021344 0.0033564309 0.3337228
-0.098783687 0.0033405113 0.33213994
-0.09745159 0.0033276153 0.33085772
-0.096186884 0.0033167892 0.32978129
-0.094960622 0.0033070862 0.32881656
-0.093749359 0.0032977161 0.32788491
-0.092576399 0.0032895168 0.32706967
-0.09144593 0.0032826744 0.32638934
-0.090320155 0.0032758603 0.32571185
-0.089179397 0.003268355 0.3249656
-0.08804372 0.0032608786 0.32422224
-0.086967237 0.0032554581 0.32368329
-0.085895799 0.0032501114 0.32315168
-0.084827885 0.0032447823 0.32262182
-0.083788469 0.0032404379 0.32218987
-0.082758568 0.0032363688 0.32178527
-0.081720755 0.0032318942 0.32134038
-0.080685809 0.0032274323 0.32089674
-0.079679631 0.0032240313 0.32055858
-0.078700386 0.0032216532 0.32032213
-0.077722572 0.0032192783 0.320086
-0.076746218 0.0032169074 0.31985027
-0.07576824 0.0032144103 0.31960198
-0.074794814 0.003212047 0.31936702
-0.073831357 0.0032100589 0.31916934
-0.072868615 0.0032080521 0.31896982
-0.071907073 0.0032060479 0.31877053
-0.070946731 0.0032040458 0.31857148
-0.069999933 0.0032026113 0.31842884
-0.069068983 0.0032018733 0.31835547
-0.068138465 0.0032011361 0.31828216
-0.067211866 0.003200565 0.31822538
-0.066287279 0.0032000756 0.31817672
-0.065362968 0.0031995857 0.31812802
-0.064438939 0.0031990963 0.31807935
-0.06352488 0.0031990944 0.31807917
-0.062615775 0.0031993459 0.31810418
-0.061706524 0.0031995974 0.31812918
-0.060797904 0.0031998898 0.31815824
-0.059889603 0.0032002078 0.31818986
-0.058982428 0.0032005969 0.31822854
-0.05809126 0.0032018805 0.31835619
-0.057199385 0.0032031655 0.31848395
-0.056304142 0.0032043008 0.31859681
-0.055406854 0.003205355 0.31870165
-0.054522034 0.0032071786 0.31888294
-0.053636208 0.0032090039 0.31906444
-0.052749377 0.0032108317 0.31924617
-0.051861532 0.0032126612 0.31942809
-0.050972674 0.0032144929 0.31961021
-0.050088041 0.0032166631 0.31982598
-0.049207497 0.0032191821 0.32007644
-0.048325576 0.0032217049 0.32032728
-0.047442738 0.0032242639 0.3205817
-0.046559848 0.00322692 0.32084581
-0.045675498 0.0032295806 0.32111034
-0.044803847 0.0032332672 0.32147691
-0.043935321 0.0032373397 0.3218818
-0.043064609 0.0032414224 0.32228774
-0.042191699 0.0032455153 0.32269469
-0.041316576 0.0032496185 0.32310265
-0.040438123 0.003253642 0.32350272
-0.039573643 0.003259006 0.32403603
-0.03870536 0.0032643075 0.32456318
-0.037832275 0.0032694559 0.32507506
-0.036956426 0.00327462 0.32558852
-0.036077809 0.0032798008 0.32610363
-0.035196405 0.0032849975 0.32662034
-0.034326274 0.0032915603 0.32727286
-0.033460967 0.0032989688 0.32800946
-0.032596085 0.0033068492 0.32879299
-0.03171704 0.0033137207 0.32947621
-0.030821228 0.0033192092 0.33002192
-0.029934186 0.0033260207 0.33069918
-0.029066805 0.0033355351 0.33164516
-0.028189398 0.0033445049 0.33253703
-0.027307263 0.0033535236 0.33343372
-0.026420159 0.0033625658 0.33433276
-0.025556592 0.0033753989 0.33560875
-0.024659922 0.0033846954 0.33653307
-0.023747463 0.0033924947 0.33730856
-0.022878217 0.0034073938 0.33878994
-0.021985538 0.0034199727 0.34004062
-0.021078274 0.003431347 0.34117153
-0.020188956 0.0034468949 0.34271744
-0.019303018 0.0034646441 0.34448221
-0.01840597 0.0034822107 0.34622881
-0.017505998 0.0035011997 0.34811684
-0.016598312 0.0035208541 0.35007104
-0.015718242 0.0035492803 0.35289741
-0.014838377 0.0035816771 0.35611856
-0.01398036 0.0036245377 0.36038008
-0.10855185 0.0044610351 0.34498429
-0.10645287 0.0044150962 0.34143171
-0.10474338 0.0043846066 0.33907387
-0.10307122 0.0043551219 0.33679375
-0.10152753 0.0043305582 0.33489418
-0.10007167 0.0043093064 0.3332507
-0.098701857 0.0042913854 0.3318648
-0.097371176 0.0042748321 0.3305847
-0.096106105 0.0042608618 0.32950434
-0.09488906 0.0042487639 0.32856879
-0.093678914 0.0042367349 0.32763854
-0.09250991 0.0042263414 0.32683477
-0.091380388 0.0042175567 0.32615542
-0.090255558 0.0042088083 0.32547891
-0.089135379 0.0042000962 0.32480517
-0.088008709 0.004190891 0.32409331
-0.086906187 0.0041826507 0.32345605
-0.085835598 0.0041757859 0.32292518
-0.084794581 0.004170225 0.32249516
-0.083763435 0.0041650324 0.32209361
-0.08273486 0.0041598533 0.32169306
-0.081708834 0.0041546864 0.3212935
-0.080685362 0.0041495329 0.32089496
-0.079689302 0.0041456865 0.3205975
-0.07870426 0.0041423296 0.32033792
-0.077719741 0.0041389209 0.32007432
-0.076736838 0.0041355183 0.31981117
-0.075757965 0.0041322527 0.31955865
-0.074794263 0.0041297446 0.31936467
-0.073838867 0.0041276389 0.31920183
-0.072884455 0.0041255355 0.31903917
-0.071930289 0.0041233925 0.31887347
-0.070969626 0.0041208169 0.3186743
-0.070018582 0.0041187401 0.31851369
-0.069091111 0.0041180132 0.31845745
-0.068165556 0.0041173827 0.3184087
-0.067240283 0.0041167522 0.31835994
-0.066315301 0.0041161221 0.31831121
-0.065390594 0.0041154921 0.31826249
-0.064466178 0.0041148621 0.31821379
-0.06355115 0.0041148225 0.31821072
-0.062642768 0.0041152183 0.31824133
-0.061734416 0.0041156276 0.31827298
-0.060825873 0.0041160365 0.3183046
-0.059917156 0.0041164458 0.31833625
-0.059014581 0.0041172961 0.31840202
-0.058122944 0.0041189487 0.31852981
-0.057225998 0.0041202717 0.31863213
-0.056327805 0.0041215466 0.31873071
-0.055429053 0.0041228221 0.31882936
-0.05454284 0.0041250885 0.31900463
-0.053656686 0.0041274377 0.31918627
-0.052769527 0.0041297893 0.31936812
-0.05188242 0.004132228 0.31955674
-0.050996922 0.0041348855 0.31976226
-0.050112274 0.0041377107 0.31998071
-0.049231321 0.0041409521 0.32023141
-0.048348989 0.0041441992 0.32048249
-0.047465276 0.0041474514 0.32073399
-0.046580173 0.0041507087 0.32098588
-0.04569792 0.0041543567 0.32126799
-0.044824965 0.0041590175 0.32162842
-0.043956142 0.0041642659 0.32203433
-0.043084394 0.0041694576 0.3224358
-0.042210471 0.0041746623 0.32283828
-0.041334365 0.0041798796 0.32324177
-0.040456068 0.0041851103 0.32364628
-0.039583817 0.0041912277 0.32411933
-0.038710371 0.00419751 0.32460517
-0.037834298 0.0042038108 0.32509243
-0.036955595 0.0042101312 0.32558119
-0.036074243 0.0042164703 0.32607141
-0.035202604 0.0042243125 0.32667789
-0.034340847 0.0042338031 0.32741183
-0.033475209 0.0042433362 0.32814905
-0.032608569 0.004253292 0.32891893
-0.031722687 0.0042612562 0.32953486
-0.030826855 0.0042683338 0.33008218
-0.029943757 0.0042776796 0.33080491
-0.029070934 0.0042891544 0.33169228
-0.028193416 0.0043006907 0.33258441
-0.027311163 0.0043122889 0.33348134
-0.026424136 0.0043239496 0.3343831
-0.025570534 0.0043421662 0.33579183
-0.024669161 0.0043533812 0.33665913
-0.023758275 0.004363765 0.33746213
-0.02289008 0.0043832068 0.33896562
-0.021993419 0.004398684 0.34016252
-0.021087481 0.0044136588 0.34132054
-0.020211687 0.0044367118 0.34310332
-0.019322466 0.0044590305 0.34482929
-0.018415796 0.0044795182 0.34641364
-0.017524956 0.0045064176 0.34849384
-0.016621606 0.0045331651 0.35056233
-0.015737066 0.0045688259 0.35332006
-0.01484402 0.0046067648 0.35625398
-0.014000402 0.0046668006 0.36089674
-0.10841417 0.0054454608 0.34454674
-0.1063118 0.0053890776 0.34097925
-0.10469392 0.0053564333 0.33891377
-0.10302287 0.0053204303 0.33663577
-0.10148222 0.0052905423 0.33474469
-0.099995032 0.0052628964 0.33299547
-0.098650999 0.0052423235 0.3316938
-0.097328603 0.0052225105 0.33044016
-0.09606497 0.0052054911 0.32936332
-0.094834358 0.0051899399 0.32837936
-0.093611069 0.0051744813 0.32740125
-0.092443533 0.0051618218 0.32660025
-0.091314957 0.0051511 0.32592186
-0.090191059 0.0051404228 0.3252463
-0.08907181 0.0051297904 0.32457355
-0.087957188 0.0051192013 0.32390356
-0.086845212 0.0051085418 0.3232291
-0.085802287 0.0051017576 0.32279986
-0.084765777 0.0050952104 0.32238561
-0.08373192 0.0050886804 0.32197243
-0.082700714 0.0050821668 0.32156029
-0.081672132 0.0050756694 0.3211492
-0.080646187 0.0050691892 0.32073918
-0.079645291 0.0050641517 0.32042044
-0.078659743 0.0050599836 0.32015672
-0.077675819 0.0050558224 0.31989345
-0.076698236 0.0050519798 0.31965029
-0.075730935 0.005048729 0.31944463
-0.074764885 0.0050454829 0.31923923
-0.073807359 0.0050427387 0.3190656
-0.072853372 0.0050401702 0.31890309
-0.07190036 0.0050376048 0.31874076
-0.07094831 0.0050350414 0.31857857
-0.070005968 0.0050331089 0.31845629
-0.069085889 0.0050327471 0.3184334
-0.068161123 0.005032029 0.31838799
-0.067236327 0.0050312895 0.3183412
-0.066311806 0.0050305505 0.31829444
-0.065387554 0.0050298115 0.31824768
-0.064463571 0.005029073 0.31820095
-0.063552245 0.0050293142 0.3182162
-0.062655084 0.0050307 0.31830388
-0.061757427 0.0050320867 0.31839162
-0.060853869 0.0050330269 0.31845111
-0.059944738 0.0050335275 0.31848279
-0.059045509 0.0050348882 0.31856889
-0.058148056 0.0050364458 0.31866744
-0.057250045 0.0050380039 0.31876603
-0.056351483 0.0050395634 0.3188647
-0.055452365 0.0050411238 0.31896344
-0.05456366 0.0050436994 0.3191264
-0.053677179 0.0050465725 0.31930816
-0.05279249 0.0050497162 0.31950709
-0.051907711 0.0050529633 0.31971252
-0.051021799 0.0050562145 0.31991825
-0.050136529 0.0050596497 0.32013559
-0.04925517 0.0050636157 0.32038653
-0.048372433 0.0050675883 0.32063788
-0.047492228 0.0050719855 0.32091612
-0.046611045 0.0050764503 0.32119861
-0.045728307 0.005080923 0.32148162
-0.044853561 0.0050864862 0.32183361
-0.043984856 0.0050929836 0.3222447
-0.043113936 0.0050994977 0.32265687
-0.042239785 0.005105908 0.32306248
-0.041363105 0.0051122936 0.32346651
-0.040484231 0.005118696 0.32387158
-0.039607063 0.0051256199 0.32430968
-0.038733132 0.0051333066 0.32479605
-0.037856583 0.0051410175 0.32528391
-0.036977392 0.0051487512 0.32577324
-0.036097649 0.0051568071 0.32628298
-0.035223473 0.0051661092 0.32687154
-0.034357749 0.0051771952 0.32757297
-0.033489462 0.005188508 0.32828876
-0.032621067 0.0052004596 0.32904497
-0.031728331 0.0052091293 0.32959351
-0.030837487 0.0052186516 0.33019602
-0.029960675 0.0052312287 0.3309918
-0.029085439 0.0052449154 0.33185777
-0.028205616 0.0052586743 0.33272833
-0.02732116 0.0052725044 0.33360341
-0.026432043 0.0052864086 0.33448315
-0.025583936 0.0053098737 0.33596784
-0.024676215 0.0053223209 0.33675539
-0.023769561 0.0053360239 0.33762243
-0.022901807 0.0053599975 0.33913928
-0.022001304 0.0053780968 0.34028447
-0.021097319 0.0053969887 0.34147981
-0.020223033 0.0054256916 0.3432959
-0.019321246 0.0054495824 0.34480754
-0.018425152 0.0054777479 0.34658962
-0.017531337 0.0055098487 0.34862071
-0.016645046 0.0055483487 0.35105669
-0.015751041 0.0055890791 0.35363382
-0.014849666 0.0056326319 0.35638949
-0.014036306 0.0057184952 0.36182225
-0.11197595 0.0065868208 0.35264578
-0.10827684 0.0064273928 0.34411031
-0.10622133 0.0063634901 0.34068909
-0.10462207 0.0063259858 0.33868119
-0.10297458 0.0062848334 0.33647797
-0.10143694 0.006249669 0.33459532
-0.099975415 0.0062185666 0.33293015
-0.098613441 0.0061931149 0.33156753
-0.097291693 0.0061697168 0.33031484
-0.096034758 0.0061500091 0.32925972
-0.094804615 0.0061316416 0.32827637
-0.093581796 0.0061133839 0.32729888
-0.092414059 0.0060983896 0.32649612
-0.091285571 0.0060857045 0.32581699
-0.090161763 0.0060730721 0.32514066
-0.089042611 0.0060604922 0.32446715
-0.087928094 0.0060479641 0.32379642
-0.086824119 0.0060359011 0.3231506
-0.08577136 0.0060271765 0.32268351
-0.084725194 0.0060187294 0.32223126
-0.083688207 0.0060107554 0.32180434
-0.082657591 0.006003065 0.32139263
-0.081629612 0.0059953951 0.32098198
-0.080604248 0.0059877443 0.32057238
-0.07960023 0.0059815203 0.32023916
-0.078615285 0.0059766006 0.31997576
-0.077639036 0.0059722336 0.31974196
-0.076670863 0.0059683905 0.31953621
-0.075703926 0.0059645516 0.31933069
-0.074738234 0.0059607183 0.31912544
-0.073775873 0.0059570582 0.31892949
-0.07282231 0.0059540253 0.31876713
-0.071869716 0.0059509953 0.31860492
-0.070924193 0.0059484807 0.31847027
-0.069984302 0.0059463787 0.31835774
-0.069053076 0.0059449668 0.31828216
-0.068135954 0.0059447475 0.31827042
-0.067217827 0.0059444336 0.31825361
-0.06629356 0.005943561 0.31820688
-0.065369569 0.0059426879 0.31816015
-0.064445838 0.0059418152 0.31811342
-0.063528918 0.0059415535 0.31809941
-0.062632076 0.0059431898 0.31818703
-0.061734743 0.0059448271 0.31827468
-0.060836915 0.0059464653 0.31836239
-0.059940115 0.0059482558 0.31845823
-0.059048735 0.0059506474 0.31858629
-0.058158781 0.0059532612 0.31872621
-0.057268046 0.0059558768 0.31886625
-0.056375183 0.0059583527 0.31899881
-0.055475697 0.0059601986 0.31909764
-0.054585189 0.0059630875 0.31925231
-0.053702272 0.005966919 0.31945744
-0.05281822 0.0059707551 0.31966281
-0.051933028 0.0059745959 0.31986845
-0.051046703 0.0059784427 0.32007438
-0.050160807 0.0059824814 0.32029063
-0.04928261 0.0059876069 0.32056502
-0.048403963 0.0059928717 0.32084689
-0.04752377 0.0059981458 0.32112926
-0.046642032 0.0060034296 0.32141215
-0.045758732 0.0060087224 0.32169551
-0.044882197 0.0060151396 0.32203907
-0.044012975 0.0060228282 0.3224507
-0.043141533 0.0060305367 0.3228634
-0.042267852 0.0060382648 0.32327715
-0.041391883 0.0060460055 0.32369158
-0.040512435 0.0060535823 0.32409722
-0.039630774 0.0060611772 0.32450384
-0.038755927 0.0060702055 0.3249872
-0.037878893 0.0060793287 0.32547563
-0.037001546 0.0060888622 0.32598603
-0.03612373 0.0060988115 0.32651871
-0.035246421 0.0061093792 0.32708448
-0.034380183 0.0061224978 0.32778683
-0.033510216 0.0061356737 0.32849222
-0.032634839 0.006148593 0.32918391
-0.031747617 0.0061599854 0.32979384
-0.030859685 0.0061719371 0.3304337
-0.029988712 0.0061881468 0.33130154
-0.029112807 0.006204369 0.33217004
-0.028232226 0.0062206597 0.33304223
-0.027347738 0.0062372033 0.33392793
-0.026468487 0.0062561878 0.33494434
-0.025593968 0.0062777656 0.33609957
-0.024685152 0.0062922938 0.33687738
-0.023789359 0.0063114627 0.33790365
-0.022919662 0.0063394811 0.33940369
-0.022014957 0.0063598761 0.34049562
-0.021118956 0.0063848007 0.34183002
-0.020240374 0.0064176796 0.34359029
-0.019327225 0.0064424085 0.34491423
-0.018439474 0.0064787343 0.34685904
-0.017541656 0.0065154722 0.34882593
-0.016656013 0.00656146 0.35128802
-0.015763499 0.0066104997 0.35391352
-0.014856165 0.0066596605 0.35654548
-0.014075482 0.0067770844 0.36283213
-0.11085014 0.0075237653 0.34910026
-0.10813986 0.0074068396 0.34367496
-0.10613102 0.0073362463 0.34039944
-0.10453365 0.0072930455 0.33839494
-0.10292633 0.0072483332 0.33632031
-0.10140651 0.0072089932 0.33449495
-0.099955812 0.0071738623 0.33286488
-0.098575927 0.0071431831 0.33144137
-0.097254805 0.0071162051 0.33018962
-0.096004553 0.0070939325 0.32915616
-0.094774887 0.0070727528 0.32817343
-0.093552276 0.0070516788 0.32719561
-0.09238863 0.0070346668 0.32640627
-0.0912605 0.0070200386 0.32572752
-0.09013705 0.0070054703 0.32505155
-0.089018255 0.0069909627 0.3243784
-0.087904088 0.0069765151 0.32370803
-0.086808942 0.0069632842 0.32309413
-0.085754916 0.0069531011 0.32262164
-0.084708087 0.0069432855 0.3221662
-0.083665073 0.0069335694 0.32171538
-0.082624987 0.0069238814 0.32126585
-0.081587791 0.0069142198 0.32081756
-0.080562353 0.0069053448 0.32040575
-0.079555228 0.0068978523 0.32005811
-0.078580379 0.0068930159 0.3198337
-0.07761132 0.0068885786 0.31962782
-0.076643504 0.0068841469 0.31942219
-0.075676933 0.0068797213 0.31921685
-0.074711606 0.0068753012 0.31901175
-0.073747516 0.0068708868 0.31880692
-0.072791271 0.006867101 0.31863126
-0.071842492 0.0068639326 0.31848425
-0.070902243 0.0068615074 0.31837171
-0.069962651 0.0068590832 0.31825924
-0.069023721 0.0068566613 0.31814685
-0.068103604 0.0068560676 0.31811932
-0.067186981 0.0068558147 0.31810758
-0.066270433 0.0068555623 0.31809586
-0.065351591 0.0068550617 0.31807265
-0.064428128 0.0068540559 0.31802598
-0.063505605 0.0068531227 0.31798267
-0.062609091 0.0068550096 0.31807023
-0.061712079 0.0068568974 0.31815782
-0.060816944 0.0068590539 0.31825787
-0.059921671 0.0068612602 0.31836024
-0.059029929 0.0068639456 0.31848484
-0.058140252 0.0068669589 0.31862468
-0.057249796 0.0068699755 0.31876463
-0.056358032 0.0068729306 0.31890175
-0.055464443 0.0068757571 0.31903291
-0.05457947 0.0068797651 0.31921887
-0.05369626 0.0068841362 0.31942168
-0.052811958 0.0068885162 0.31962493
-0.051926527 0.0068929018 0.31982842
-0.051039971 0.0068972935 0.32003218
-0.050158896 0.0069026002 0.32027841
-0.049287092 0.0069094053 0.32059416
-0.048413571 0.0069162245 0.32091057
-0.047538321 0.0069230567 0.32122758
-0.04666134 0.0069299024 0.32154521
-0.045782629 0.006936762 0.3218635
-0.044908732 0.0069446494 0.32222947
-0.044041127 0.0069538625 0.32265696
-0.043169159 0.0069627678 0.32307017
-0.042294957 0.0069716964 0.32348445
-0.041418508 0.0069806473 0.32389978
-0.040539805 0.0069896216 0.32431617
-0.039658435 0.0069985474 0.32473034
-0.038778748 0.0070082075 0.32517856
-0.037903797 0.0070192218 0.32568961
-0.037028257 0.0070306817 0.32622135
-0.036149856 0.0070421793 0.32675484
-0.035269395 0.0070538786 0.32729769
-0.034402639 0.0070690354 0.32800096
-0.033530928 0.0070839985 0.32869524
-0.032653701 0.0070986305 0.32937416
-0.031767789 0.0071121915 0.33000338
-0.030888405 0.0071280934 0.33074123
-0.030016694 0.0071468316 0.33161068
-0.029140228 0.0071656299 0.3324829
-0.028263127 0.0071855411 0.33340678
-0.027386829 0.0072070607 0.33440527
-0.026498243 0.007226794 0.33532089
-0.025608791 0.0072477711 0.33629423
-0.024711918 0.0072682109 0.33724263
-0.023819329 0.0072916318 0.33832934
-0.022943489 0.0073223901 0.33975652
-0.022041483 0.0073471605 0.34090587
-0.021138761 0.0073739863 0.34215057
-0.020260027 0.0074122045 0.3439239
-0.019355947 0.007444595 0.3454268
-0.018467031 0.0074866344 0.34737742
-0.017571619 0.0075306934 0.34942174
-0.016690172 0.0075864415 0.35200843
-0.015797324 0.0076438668 0.35467294
-0.01494414 0.0077297278 0.35865685
-0.014188589 0.0078825494 0.36574772
-0.11053937 0.0085030282 0.34812155
-0.10800323 0.0083838124 0.34324074
-0.10604088 0.0083073499 0.3401103
-0.10444537 0.0082584713 0.33810917
-0.10286853 0.0082101645 0.33613145
-0.10138652 0.0081685828 0.33442906
-0.099936217 0.0081287827 0.33279961
-0.098538421 0.0080925273 0.33131528
-0.097217955 0.0080619771 0.33006451
-0.095974371 0.0080372626 0.32905269
-0.094745182 0.0080132745 0.32807058
-0.09352272 0.0079893786 0.32709226
-0.092363209 0.007970429 0.32631648
-0.091235444 0.0079538589 0.32563809
-0.090112358 0.0079373578 0.3249625
-0.088993922 0.0079209246 0.32428971
-0.087880105 0.0079045603 0.32361972
-0.086793788 0.0078903437 0.32303771
-0.085739017 0.0078787208 0.32256183
-0.084691428 0.0078675095 0.32210284
-0.083648212 0.0078564612 0.32165053
-0.082608342 0.0078454847 0.32120115
-0.081571385 0.0078345397 0.32075304
-0.080537319 0.0078236256 0.32030618
-0.079529718 0.0078150593 0.31995547
-0.078557372 0.0078097973 0.31974006
-0.077587552 0.0078046652 0.31952995
-0.076619014 0.0077995406 0.31932014
-0.07565175 0.0077944226 0.3191106
-0.074685745 0.007789311 0.31890133
-0.073721267 0.007784233 0.31869343
-0.072760887 0.0077794655 0.31849825
-0.071820259 0.0077767163 0.31838569
-0.070880309 0.0077739693 0.31827322
-0.069941014 0.0077712242 0.31816083
-0.069002382 0.0077684806 0.31804851
-0.068071283 0.0077665225 0.31796834
-0.0671551 0.0077662361 0.31795663
-0.066238984 0.0077659502 0.31794491
-0.065322943 0.0077656647 0.31793323
-0.064406961 0.0077653788 0.31792152
-0.063487478 0.0077646552 0.3178919
-0.062586524 0.0077662109 0.31795558
-0.061692666 0.007768706 0.31805775
-0.060798239 0.0077712038 0.31816
-0.059903238 0.0077737025 0.31826231
-0.059011139 0.0077766618 0.31838346
-0.058120497 0.0077799088 0.3185164
-0.057228711 0.0077831047 0.31864724
-0.056336194 0.0077863033 0.31877819
-0.055443536 0.0077895876 0.31891266
-0.05456157 0.0077945101 0.31911418
-0.053678479 0.0077994373 0.31931591
-0.05279443 0.0078043938 0.31951883
-0.051909283 0.0078093614 0.31972221
-0.051023006 0.0078143347 0.31992581
-0.050145887 0.0078209182 0.32019535
-0.049274299 0.0078286268 0.32051095
-0.048400991 0.0078363512 0.32082719
-0.047525954 0.0078440895 0.32114401
-0.046648629 0.0078517497 0.32145762
-0.045768648 0.0078592626 0.32176521
-0.044896334 0.0078684296 0.32214051
-0.04402649 0.0078784246 0.32254973
-0.04315789 0.0078890771 0.32298583
-0.042288538 0.0079000564 0.32343534
-0.041416757 0.0079110665 0.3238861
-0.040542547 0.0079221064 0.32433811
-0.039665893 0.0079331789 0.3247914
-0.038790669 0.0079450766 0.32527852
-0.037927348 0.0079600606 0.32589197
-0.037055008 0.0079738619 0.32645702
-0.036176011 0.0079869116 0.32699126
-0.03529413 0.0080000032 0.32752725
-0.034424294 0.0080166161 0.3282074
-0.033550218 0.0080331508 0.32888433
-0.032672528 0.0080497535 0.32956406
-0.031787984 0.0080656074 0.33021316
-0.030917175 0.0080860304 0.33104929
-0.030043093 0.0081068659 0.33190233
-0.029156234 0.0081255082 0.33266553
-0.028282121 0.0081490856 0.33363083
-0.027398042 0.008171346 0.33454219
-0.026509125 0.0081937294 0.33545858
-0.02562461 0.0082192142 0.33650196
-0.024737911 0.0082459701 0.33759737
-0.023847995 0.0082737943 0.3387365
-0.022967363 0.0083073443 0.34011006
-0.022070866 0.0083378823 0.34136033
-0.021170491 0.0083697289 0.34266415
-0.020279713 0.0084086619 0.3442581
-0.019384755 0.0084497649 0.34594089
-0.018497998 0.0084990803 0.34795991
-0.017604083 0.0085505545 0.35006732
-0.016726891 0.0086168833 0.35278288
-0.015854653 0.0086944867 0.35596004
-0.015005021 0.0087960474 0.360118
-0.11035313 0.0094873728 0.34753501
-0.10786694 0.0093583185 0.34280759
-0.10594083 0.0092759244 0.33978939
-0.10434193 0.0092209149 0.33777431
-0.10276785 0.0091670854 0.33580247
-0.10136655 0.0091277938 0.33436316
-0.099916637 0.0090833306 0.33273441
-0.098500952 0.0090411501 0.3311893
-0.097181119 0.0090070311 0.32993945
-0.095944211 0.0089799995 0.32894927
-0.09471529 0.0089531867 0.32796708
-0.093493193 0.0089264857 0.326989
-0.092338927 0.0089057842 0.32623067
-0.091210403 0.008887168 0.32554871
-0.090087675 0.0088687344 0.32487348
-0.088969596 0.0088503789 0.32420108
-0.087861225 0.0088326102 0.32355019
-0.086778626 0.0088170795 0.3229813
-0.085723124 0.0088039963 0.32250205
-0.084675752 0.0087914718 0.32204324
-0.083631352 0.0087789819 0.32158571
-0.08259172 0.0087667191 0.3211365
-0.081554994 0.0087544909 0.32068858
-0.080521151 0.0087422971 0.3202419
-0.079533145 0.0087348539 0.31996927
-0.078546956 0.0087274397 0.31969765
-0.077575214 0.0087214736 0.31947911
-0.076606832 0.0087157479 0.31926936
-0.075639725 0.0087100286 0.31905988
-0.074673884 0.0087043177 0.31885067
-0.073710024 0.0086986981 0.31864482
-0.072754785 0.0086939679 0.31847155
-0.071812488 0.0086906832 0.31835124
-0.07087224 0.0086875651 0.31823701
-0.069932669 0.0086844489 0.31812286
-0.06899377 0.0086813355 0.31800881
-0.068060376 0.0086788395 0.31791738
-0.067143165 0.0086783674 0.31790009
-0.06622605 0.008677897 0.31788284
-0.065309048 0.0086774258 0.31786558
-0.064392135 0.0086769545 0.31784832
-0.063475326 0.0086764833 0.31783107
-0.06257876 0.008678806 0.31791615
-0.061685678 0.0086816875 0.31802171
-0.060792003 0.0086845718 0.31812736
-0.059897736 0.008687458 0.31823307
-0.058997657 0.0086895768 0.31831071
-0.058098003 0.0086918278 0.31839314
-0.057206556 0.0086953966 0.31852388
-0.056314379 0.0086989691 0.31865475
-0.055425372 0.0087031573 0.31880817
-0.054543674 0.008708654 0.31900951
-0.05366087 0.0087141581 0.31921116
-0.052776948 0.0087196697 0.31941304
-0.05189205 0.008725212 0.31961605
-0.05100606 0.0087307673 0.31981954
-0.050132882 0.008738759 0.32011232
-0.04926151 0.0087473709 0.32042778
-0.048388138 0.0087559484 0.32074198
-0.047511775 0.0087643079 0.3210482
-0.046633735 0.0087726833 0.32135499
-0.045754019 0.0087810745 0.32166237
-0.044885363 0.0087919785 0.32206181
-0.044015724 0.008803145 0.32247084
-0.043143868 0.0088143386 0.32288089
-0.042270239 0.0088256542 0.32329538
-0.041398812 0.0088379486 0.32374576
-0.040525891 0.0088504823 0.32420486
-0.039655086 0.0088640777 0.32470289
-0.038781594 0.0088777151 0.32520244
-0.037907701 0.0088919299 0.32572314
-0.037042361 0.0089089228 0.32634562
-0.036173712 0.0089259809 0.32697049
-0.035301726 0.0089431042 0.32759774
-0.034433201 0.0089620659 0.32829234
-0.033561524 0.008981253 0.32899517
-0.032686103 0.0090005212 0.32970101
-0.031808048 0.0090201925 0.3304216
-0.030925514 0.0090397662 0.33113858
-0.030039143 0.0090594245 0.33185869
-0.029150818 0.0090797627 0.33260372
-0.028288966 0.0091100056 0.33371156
-0.027409265 0.0091364216 0.33467922
-0.026521906 0.0091621131 0.33562031
-0.025640449 0.0091918586 0.33670995
-0.024752378 0.0092214746 0.33779481
-0.023865305 0.009253894 0.33898237
-0.022984024 0.0092914142 0.3403568
-0.02209842 0.009330444 0.3417865
-0.021202317 0.0093684653 0.34317929
-0.020299442 0.0094070584 0.34459299
-0.019416656 0.0094593968 0.34651023
-0.018519226 0.0095098726 0.34835923
-0.017635437 0.009573523 0.35069081
-0.016763773 0.0096518695 0.35356075
-0.015911996 0.0097525138 0.35724747
-0.015075509 0.0098770577 0.3618097
-0.11021213 0.010472646 0.34709099
-0.10773099 0.010330369 0.34237555
-0.10582747 0.010241367 0.3394258
-0.10423094 0.010180697 0.33741501
-0.1026931 0.010124672 0.33555821
-0.10131759 0.010083742 0.33420166
-0.099897049 0.010037503 0.3326692
-0.098463513 0.0099890521 0.33106342
-0.097149678 0.0099519184 0.3298327
-0.095914066 0.009922144 0.32884592
-0.094685309 0.0098924944 0.32786325
-0.093468525 0.0098635126 0.32690272
-0.092316598 0.0098408554 0.32615179
-0.091185369 0.009819963 0.32545936
-0.090063006 0.0097996015 0.32478452
-0.088945277 0.0097793238 0.32411247
-0.087845869 0.0097606517 0.32349363
-0.086763479 0.0097434921 0.32292491
-0.085707232 0.009728929 0.32244226
-0.084660083 0.0097150914 0.32198364
-0.083615899 0.009701292 0.32152629
-0.08257509 0.0096875811 0.32107186
-0.081538595 0.0096740713 0.32062411
-0.080524504 0.0096629402 0.32025522
-0.079536587 0.0096547296 0.31998309
-0.078550346 0.0096465331 0.31971145
-0.077565774 0.0096383505 0.31944025
-0.076594658 0.0096316636 0.31921861
-0.075627707 0.0096253445 0.31900918
-0.074663274 0.009619195 0.31880537
-0.073705487 0.0096137589 0.31862521
-0.072751231 0.0096086534 0.31845599
-0.071806423 0.0096046804 0.31832433
-0.070866257 0.0096012345 0.31821012
-0.069926769 0.0095977914 0.31809601
-0.068987951 0.0095943511 0.31798199
-0.068056569 0.0095918654 0.31789961
-0.067137949 0.0095911352 0.31787542
-0.066220909 0.0095906146 0.31785816
-0.065303974 0.009590094 0.3178409
-0.064387135 0.0095895734 0.31782365
-0.063471705 0.0095892502 0.31781292
-0.062579207 0.0095924335 0.31791842
-0.061686121 0.0095956195 0.31802401
-0.060792442 0.0095988065 0.31812966
-0.059894562 0.0096014179 0.3182162
-0.058994055 0.0096036829 0.31829128
-0.058093797 0.0096060606 0.31837007
-0.057193086 0.0096084382 0.31844887
-0.056292579 0.0096109286 0.31853139
-0.055407211 0.0096161272 0.31870371
-0.0545258 0.0096221995 0.31890497
-0.053643268 0.0096282782 0.31910643
-0.052759625 0.0096343663 0.31930819
-0.051874861 0.0096404608 0.31951019
-0.050989337 0.0096466318 0.3197147
-0.050119888 0.0096561257 0.32002935
-0.049247153 0.009665329 0.32033437
-0.048372719 0.0096745444 0.32063979
-0.047496621 0.0096837776 0.3209458
-0.046618849 0.0096930284 0.32125241
-0.045741644 0.0097027728 0.32157537
-0.044874404 0.0097150765 0.32198316
-0.044004958 0.0097274119 0.32239196
-0.043133304 0.009739778 0.32280183
-0.042259794 0.0097522605 0.32321551
-0.041386321 0.0097653111 0.32364807
-0.04051644 0.0097798305 0.32412925
-0.039645821 0.0097948499 0.32462704
-0.038772523 0.009809915 0.32512635
-0.037896536 0.0098250275 0.32562721
-0.037023146 0.0098415958 0.32617632
-0.036154907 0.0098604299 0.32680053
-0.0352851 0.0098798284 0.32744345
-0.034417499 0.0099009238 0.32814261
-0.033546183 0.0099221105 0.32884479
-0.032675046 0.0099445786 0.32958946
-0.031800531 0.0099673308 0.33034351
-0.030921463 0.0099900104 0.33109519
-0.0300352 0.010011734 0.33181512
-0.029145403 0.010033663 0.33254194
-0.028283693 0.010067077 0.33364937
-0.027416224 0.010100714 0.33476418
-0.026536845 0.010132249 0.33580935
-0.025650822 0.010163534 0.33684617
-0.024759315 0.010195012 0.33788946
-0.023868557 0.010229382 0.33902857
-0.022980016 0.010267667 0.34029743
-0.022095442 0.010311207 0.34174046
-0.021212231 0.010359462 0.34333977
-0.020314908 0.010405197 0.34485555
-0.019418238 0.010455973 0.34653842
-0.018521596 0.010512257 0.34840381
-0.017662415 0.010597449 0.35122728
-0.01676398 0.010667987 0.3535651
-0.015907062 0.010775752 0.35713673
-0.015092775 0.010929251 0.36222407
-0.11005358 0.011453541 0.34659168
-0.10759539 0.011299972 0.34194461
-0.10571961 0.011205304 0.33907989
-0.10412018 0.011138438 0.33705646
-0.10261846 0.011080866 0.3353143
-0.10124425 0.011036103 0.33395973
-0.099877477 0.010991301 0.33260402
-0.098442361 0.01093804 0.33099228
-0.097119071 0.010896286 0.32972878
-0.095883816 0.010863683 0.32874221
-0.094655342 0.010831209 0.3277595
-0.093445882 0.010800278 0.3268235
-0.092294276 0.010775474 0.32607293
-0.091160357 0.010752247 0.32537007
-0.090038352 0.010729959 0.32469562
-0.088920981 0.010707762 0.32402393
-0.087830499 0.010688367 0.32343704
-0.086748324 0.010669581 0.32286853
-0.085691363 0.01065352 0.32238254
-0.084644414 0.010638369 0.32192406
-0.083600454 0.010623261 0.32146689
-0.082559451 0.010608197 0.32101104
-0.081522211 0.010593282 0.32055968
-0.080527984 0.010583677 0.32026905
-0.079540022 0.010574684 0.31999692
-0.078553736 0.010565707 0.31972525
-0.07756912 0.010556743 0.31945401
-0.076586172 0.010547796 0.31918326
-0.075617492 0.010540619 0.31896609
-0.074658677 0.01053466 0.31878576
-0.07370095 0.010528707 0.3186056
-0.072747685 0.01052325 0.31844047
-0.071800359 0.010518524 0.31829745
-0.070860274 0.01051475 0.31818327
-0.069920868 0.010510979 0.31806916
-0.068982132 0.010507213 0.31795517
-0.068052769 0.01050479 0.31788185
-0.067132734 0.010503761 0.31785074
-0.066215776 0.010503192 0.31783351
-0.065298915 0.010502622 0.31781626
-0.064382143 0.010502052 0.317799
-0.063472159 0.010502588 0.31781521
-0.062579662 0.010506074 0.31792071
-0.061686568 0.010509564 0.3180263
-0.060792267 0.010512948 0.31812873
-0.059890594 0.010515142 0.31819513
-0.05899046 0.010517678 0.31827188
-0.058090251 0.010520281 0.31835064
-0.057189595 0.010522885 0.31842944
-0.05628933 0.010525647 0.31851301
-0.055405054 0.010531539 0.31869131
-0.054521993 0.010537864 0.3188827
-0.053637866 0.010544196 0.3190743
-0.052752677 0.010550535 0.31926614
-0.051866423 0.010556882 0.31945822
-0.050981857 0.010563808 0.31966779
-0.050107609 0.010573165 0.31995094
-0.049231816 0.01058254 0.32023463
-0.048357315 0.010592555 0.32053769
-0.047481481 0.01060266 0.32084349
-0.046603974 0.010612786 0.32114989
-0.045730487 0.010624254 0.32149693
-0.044863462 0.010637728 0.32190466
-0.043997005 0.010651906 0.32233369
-0.04312823 0.010666122 0.32276386
-0.042257138 0.010680376 0.32319519
-0.041383713 0.010694668 0.32362768
-0.040511057 0.010709819 0.32408619
-0.039638974 0.01072584 0.32457098
-0.038764272 0.010741907 0.32505718
-0.037887659 0.010758224 0.32555094
-0.037009161 0.010774819 0.32605311
-0.036136124 0.010793908 0.32663074
-0.035269052 0.010815842 0.3272945
-0.034403529 0.010839468 0.32800943
-0.033537149 0.010864147 0.32875624
-0.032666821 0.01088894 0.32950649
-0.031792507 0.010913846 0.33026016
-0.030914187 0.010938866 0.33101729
-0.030031253 0.010963791 0.33177152
-0.029141236 0.010987679 0.33249441
-0.028278423 0.011023792 0.3335872
-0.027405236 0.011058253 0.33463001
-0.02652503 0.011092286 0.33565986
-0.025642533 0.011127892 0.33673733
-0.024754355 0.011163729 0.33782178
-0.023865201 0.011202033 0.33898088
-0.022972785 0.011242001 0.34019035
-0.022092465 0.011291705 0.34169441
-0.021209359 0.011344541 0.34329328
-0.020317953 0.011397876 0.34490722
-0.0194165 0.011450756 0.34650743
-0.018539954 0.011524837 0.34874913
-0.017653698 0.011601002 0.35105395
-0.016759537 0.011680889 0.3534714
-0.015902296 0.011798477 0.35702968
-0.015077067 0.011957673 0.36184707
-0.10977553 0.012418047 0.345716
-0.10746013 0.012267138 0.34151474
-0.10562683 0.01216899 0.33878231
-0.10400966 0.012094147 0.33669868
-0.10254394 0.012035673 0.33507079
-0.10117101 0.011987086 0.33371815
-0.099809133 0.011938891 0.33237642
-0.098423168 0.011886856 0.33092776
-0.097088486 0.011840059 0.32962495
-0.095853388 0.011804605 0.3286379
-0.094625391 0.011769327 0.32765579
-0.09342324 0.011736588 0.32674432
-0.092271976 0.011709642 0.32599413
-0.091135353 0.01168402 0.32528085
-0.090013705 0.011659807 0.32460675
-0.088900909 0.011636245 0.3239508
-0.087815143 0.01161576 0.3233805
-0.086733192 0.011595347 0.3228122
-0.085675485 0.011577768 0.32232282
-0.084628761 0.011561306 0.32186452
-0.083585016 0.011544892 0.32140753
-0.082544222 0.011528523 0.32095182
-0.081513062 0.011513145 0.32052371
-0.08052329 0.011503328 0.32025039
-0.079534799 0.011493468 0.31997591
-0.078547999 0.011483626 0.31970191
-0.077562891 0.011473801 0.31942838
-0.076579466 0.011463992 0.31915531
-0.075612828 0.011456489 0.31894642
-0.07465408 0.011450012 0.31876612
-0.073696412 0.011443542 0.31858599
-0.072744131 0.011437756 0.31842491
-0.07179448 0.011432243 0.3182714
-0.070854299 0.011428112 0.31815642
-0.069914967 0.011424014 0.31804234
-0.068976313 0.011419919 0.31792834
-0.068048969 0.011417612 0.31786409
-0.067127533 0.011416247 0.31782609
-0.066210635 0.011415627 0.31780884
-0.065293849 0.011415008 0.31779161
-0.064377151 0.011414388 0.31777436
-0.063472621 0.011415939 0.31781751
-0.062580109 0.011419728 0.31792301
-0.061687008 0.01142352 0.31802857
-0.060788244 0.011426362 0.31810769
-0.059886634 0.011428747 0.31817409
-0.058986858 0.011431562 0.31825244
-0.058086704 0.01143439 0.31833121
-0.057186104 0.011437221 0.31841001
-0.056294039 0.011441878 0.31853965
-0.055408578 0.011448054 0.31871158
-0.054525457 0.011454928 0.31890297
-0.053641278 0.011461811 0.3190946
-0.052756034 0.011468703 0.31928647
-0.051869728 0.011475604 0.31947857
-0.050987303 0.011483627 0.31970194
-0.050112508 0.011493695 0.31998223
-0.049236633 0.011503886 0.32026595
-0.0483592 0.011514096 0.32055017
-0.047480211 0.011524322 0.3208349
-0.046599656 0.011534569 0.32112014
-0.045727987 0.011547471 0.32147935
-0.044861559 0.011562258 0.32189101
-0.04399424 0.011577432 0.32231346
-0.043125521 0.011592883 0.32274359
-0.042254481 0.011608373 0.32317486
-0.041381106 0.011623907 0.3236073
-0.040505856 0.011639614 0.32404459
-0.039633874 0.011657022 0.32452923
-0.038759284 0.011674483 0.32501534
-0.037882064 0.011691995 0.32550287
-0.037002213 0.011709561 0.3259919
-0.036119711 0.011727179 0.32648239
-0.035257161 0.011752388 0.32718417
-0.034394909 0.011779079 0.32792726
-0.03352873 0.011805891 0.32867372
-0.032658599 0.011832826 0.32942358
-0.03178449 0.011859884 0.33017686
-0.030906374 0.011887067 0.33093363
-0.030024223 0.011914374 0.33169386
-0.029137399 0.011941557 0.33245063
-0.028266337 0.011977261 0.33344463
-0.027388543 0.012012519 0.33442619
-0.026507987 0.012049085 0.33544418
-0.025626006 0.012087738 0.33652028
-0.02474514 0.012129971 0.33769602
-0.023858162 0.012172531 0.3388809
-0.022965558 0.012215722 0.34008333
-0.022089489 0.012271938 0.34164837
-0.021206489 0.012329354 0.34324682
-0.020309458 0.012383816 0.34476301
-0.019414781 0.012445372 0.34647673
-0.018531723 0.012521435 0.34859431
-0.017644992 0.012603565 0.3508808
-0.016755326 0.012693428 0.35338259
-0.015898032 0.012820993 0.35693395
-0.015068558 0.012990137 0.36164287
-0.10949887 0.013377691 0.34484473
-0.1073252 0.013231874 0.34108594
-0.10553421 0.013130984 0.33848524
-0.10389937 0.013047828 0.33634168
-0.10246951 0.012989093 0.3348276
-0.10109788 0.012936695 0.33347693
-0.099737279 0.01288472 0.33213714
-0.098387562 0.01283316 0.33080804
-0.097057872 0.012783231 0.329521
-0.095822982 0.012744929 0.32853365
-0.09459547 0.012706854 0.32755217
-0.093400612 0.012672445 0.32666519
-0.092249677 0.012643357 0.32591537
-0.091110371 0.012615282 0.32519168
-0.089989081 0.012589145 0.32451794
-0.088885345 0.012564944 0.32389408
-0.087799795 0.012542828 0.32332397
-0.086718053 0.012520788 0.32275584
-0.085659616 0.012501674 0.32226312
-0.084613107 0.0124839 0.32180497
-0.083569571 0.012466179 0.32134816
-0.082527094 0.012448221 0.32088524
-0.081501305 0.012432402 0.32047746
-0.080512725 0.012421963 0.32020837
-0.07952439 0.012411322 0.31993404
-0.078537725 0.012400694 0.3196601
-0.077552758 0.012390085 0.31938663
-0.076569468 0.012379495 0.31911364
-0.075605214 0.012371762 0.31891429
-0.074649483 0.012365252 0.31874648
-0.073691875 0.012358265 0.31856638
-0.072740585 0.012352174 0.31840938
-0.071790978 0.012346219 0.31825587
-0.070848309 0.012341319 0.31812954
-0.069909066 0.012336894 0.31801549
-0.068970494 0.012332473 0.31790152
-0.068045162 0.012330332 0.31784633
-0.067122787 0.012328675 0.31780362
-0.066205502 0.012327921 0.31778419
-0.065288775 0.012327252 0.31776693
-0.06437216 0.012326583 0.31774971
-0.063473068 0.012329302 0.31781977
-0.062580556 0.012333394 0.31792527
-0.061685406 0.012337081 0.31802031
-0.060784224 0.012339654 0.31808665
-0.059882917 0.012342281 0.31815434
-0.058983259 0.012345334 0.31823304
-0.058083158 0.012348388 0.31831178
-0.057183851 0.012351712 0.31839746
-0.056298748 0.012358261 0.31856629
-0.055412706 0.012364819 0.31873533
-0.054528929 0.01237211 0.31892326
-0.053644694 0.012379545 0.31911492
-0.052759398 0.012386989 0.31930682
-0.051873032 0.012394441 0.31949893
-0.050993063 0.012403718 0.31973806
-0.050117407 0.012414403 0.32001349
-0.049241446 0.012425412 0.32029727
-0.048363935 0.01243644 0.32058156
-0.047484864 0.012447488 0.32086635
-0.046604622 0.012458662 0.32115436
-0.045735396 0.01247329 0.32153144
-0.044868086 0.012489054 0.32193783
-0.043999318 0.012505069 0.32235065
-0.043128323 0.012521126 0.32276455
-0.042255089 0.012537224 0.32317951
-0.041379604 0.012553363 0.32359555
-0.040502835 0.012569846 0.32402042
-0.039628781 0.012587965 0.32448751
-0.038756944 0.012607681 0.32499573
-0.037883472 0.012627824 0.32551497
-0.037007201 0.012648031 0.32603586
-0.036129601 0.012668822 0.32657179
-0.03526181 0.012694252 0.32722732
-0.034398515 0.012722738 0.32796162
-0.033531811 0.012751534 0.32870391
-0.032661177 0.012780461 0.32944956
-0.03178658 0.012809518 0.33019859
-0.030908002 0.012838708 0.33095106
-0.030025408 0.012868032 0.33170694
-0.02914354 0.0128996 0.33252069
-0.028263083 0.012933953 0.33340624
-0.027377922 0.012968489 0.33429649
-0.026493048 0.013005679 0.33525515
-0.025618453 0.01305091 0.3364211
-0.024737887 0.013096528 0.33759704
-0.023851143 0.013142467 0.33878121
-0.022961223 0.013190489 0.34001914
-0.022076625 0.013245975 0.34144941
-0.02118754 0.013303804 0.34294012
-0.02029722 0.013366463 0.34455529
-0.019415386 0.013441421 0.34648755
-0.018530028 0.013521913 0.34856242
-0.01763951 0.013607622 0.35077181
-0.016751027 0.013705386 0.35329193
-0.015893657 0.013842863 0.35683575
-0.01506006 0.014021435 0.3614389
-0.10933857 0.014347595 0.34433988
-0.1071733 0.014191898 0.34060317
-0.10544176 0.014091294 0.33818871
-0.10378932 0.01399949 0.33598542
-0.10239519 0.01394113 0.33458477
-0.10102486 0.013884934 0.33323607
-0.099665523 0.013829187 0.33189818
-0.098312169 0.013773202 0.33055454
-0.097027004 0.013725772 0.32941622
-0.095792599 0.013684656 0.32842946
-0.094565563 0.013643787 0.32744861
-0.093378 0.013607849 0.3265861
-0.092227392 0.013576621 0.32583663
-0.091085397 0.013546034 0.32510254
-0.089964457 0.013517976 0.32442915
-0.088869788 0.013493318 0.32383737
-0.087784447 0.013469571 0.32326746
-0.086702928 0.013445908 0.32269955
-0.085643753 0.013425237 0.32220343
-0.084597461 0.013406156 0.32174549
-0.083553582 0.013387038 0.32128668
-0.082507022 0.01336706 0.32080719
-0.081489548 0.013351395 0.32043123
-0.080501117 0.013340185 0.32016221
-0.079513974 0.013328932 0.31989214
-0.078527458 0.013317522 0.31961828
-0.077542618 0.01330613 0.31934488
-0.076559462 0.013294757 0.31907195
-0.07559593 0.013286558 0.31887516
-0.074644886 0.013280379 0.31872687
-0.073687501 0.013272904 0.31854746
-0.072737031 0.013266502 0.31839383
-0.071787477 0.013260107 0.31824034
-0.070842326 0.013254371 0.31810269
-0.069903173 0.01324962 0.31798866
-0.068964675 0.013244872 0.3178747
-0.068041362 0.01324295 0.31782857
-0.067119032 0.01324117 0.31778586
-0.066200368 0.013240074 0.31775954
-0.065283716 0.013239355 0.31774229
-0.064367168 0.013238637 0.31772506
-0.06347353 0.013242679 0.31782207
-0.06258101 0.013247075 0.31792757
-0.061681323 0.013250062 0.31799927
-0.060780205 0.013252826 0.31806561
-0.059879262 0.013255714 0.31813493
-0.05897966 0.013258993 0.31821361
-0.058079612 0.013262274 0.31829235
-0.057188638 0.013267764 0.31842411
-0.05630346 0.0132748 0.31859297
-0.055417344 0.013281843 0.318762
-0.054532398 0.013289408 0.31894356
-0.05364811 0.013297395 0.31913525
-0.052762758 0.01330539 0.31932715
-0.051876336 0.013313397 0.31951928
-0.050998822 0.013324016 0.31977415
-0.050122306 0.013335292 0.32004479
-0.049246263 0.013347118 0.32032859
-0.04836867 0.013358966 0.32061294
-0.047489516 0.013370834 0.32089779
-0.046613682 0.013384126 0.32121679
-0.045744296 0.013399845 0.32159403
-0.044874612 0.013416121 0.32198465
-0.044005729 0.013433328 0.32239762
-0.043134615 0.013450579 0.32281163
-0.042261261 0.013467874 0.32322672
-0.041385654 0.013485213 0.32364285
-0.040509325 0.013503108 0.32407233
-0.039637528 0.013523392 0.32455915
-0.038766392 0.013544884 0.32507494
-0.037892722 0.01356653 0.32559446
-0.037016254 0.013588245 0.32611561
-0.036142111 0.013611963 0.32668483
-0.035274044 0.013639297 0.32734084
-0.034402851 0.013666887 0.32800299
-0.033536054 0.013697824 0.32874548
-0.032665316 0.013728901 0.32949132
-0.031790618 0.013760119 0.33024055
-0.030911937 0.01379148 0.33099321
-0.030031338 0.01382395 0.33177248
-0.029155226 0.013860681 0.33265403
-0.028274443 0.013897608 0.33354026
-0.027385771 0.013933112 0.33439234
-0.026506063 0.013975924 0.33541983
-0.025625611 0.014021561 0.3365151
-0.024744455 0.014070376 0.33768666
-0.023857139 0.014119531 0.33886638
-0.022980301 0.014179335 0.34030166
-0.022093959 0.014238329 0.34171751
-0.021196257 0.014295151 0.34308121
-0.020308578 0.014364604 0.34474808
-0.019422071 0.014442053 0.34660685
-0.018535642 0.014527936 0.34866801
-0.01764955 0.014623913 0.35097146
-0.016766254 0.01473398 0.35361305
-0.015907301 0.014881023 0.35714206
-0.015098424 0.015098424 0.36235964
-0.10930832 0.01533284 0.3442446
-0.10719349 0.015173508 0.34066734
-0.1053952 0.015056456 0.33803937
-0.10370383 0.014952645 0.33570865
-0.10230818 0.014889923 0.33430046
-0.10093065 0.014828674 0.33292532
-0.099564403 0.014767926 0.33156145
-0.098239653 0.014712219 0.33031073
-0.096997313 0.014667886 0.32931539
