# .PCD v0.7 - Point Cloud Data file format
VERSION 0.7
FIELDS x y z
SIZE 4 4 4
TYPE F F F
COUNT 1 1 1
WIDTH 1336
HEIGHT 1
VIEWPOINT 0 0 0 1 0 0 0
POINTS 1336
DATA ascii
-0.046153318 0.054378659 0.31804439
-0.045243956 0.05438415 0.31807649
-0.044334374 0.054389596 0.31810835
-0.043424375 0.054394741 0.31813845
-0.042516828 0.054403253 0.31818822
-0.041616749 0.054421902 0.3182973
-0.040715795 0.054440219 0.31840444
-0.039813783 0.054457933 0.31850803
-0.038911182 0.054475654 0.31861168
-0.038015421 0.054504037 0.31877768
-0.037119936 0.054534227 0.31895426
-0.03622324 0.054564122 0.31912911
-0.035325211 0.054593507 0.31930098
-0.034426212 0.054622926 0.31947303
-0.033533525 0.054664239 0.31971467
-0.032642249 0.054710247 0.31998375
-0.031749398 0.054756206 0.32025254
-0.030855039 0.054802231 0.32052174
-0.029960128 0.054850079 0.32080159
-0.029067663 0.054905586 0.32112622
-0.028173391 0.054961205 0.32145151
-0.027279038 0.055020433 0.32179794
-0.026385745 0.055086028 0.32218158
-0.025492493 0.055156484 0.32259366
-0.024596952 0.055227119 0.32300678
-0.023699116 0.055297937 0.32342097
-0.022800446 0.05537251 0.32385713
-0.021902947 0.0554564 0.32434776
-0.021005869 0.055548854 0.3248885
-0.020104524 0.055638101 0.32541049
-0.019200278 0.055727638 0.32593417
-0.018294893 0.055822879 0.32649121
-0.017390981 0.055933155 0.32713616
-0.016483501 0.056043901 0.32778388
-0.015572487 0.056155335 0.32843563
-0.014662437 0.056284837 0.32919306
-0.013748301 0.056415442 0.32995692
-0.012829947 0.056546804 0.33072522
-0.011908903 0.056686379 0.33154154
-0.0109833 0.056826644 0.33236191
-0.010053107 0.056967605 0.33318636
-0.0091217998 0.057131276 0.33414361
-0.0081864856 0.057305399 0.33516201
-0.0072456566 0.057482209 0.33619612
-0.0063013006 0.057681136 0.33735958
-0.0053512328 0.057890609 0.33858472
-0.0043942276 0.058101453 0.33981788
-0.0034323153 0.05834936 0.34126782
-0.0024627331 0.058613043 0.34281003
-0.0014843533 0.058879349 0.34436756
-0.00049761601 0.059216306 0.34633833
0.00050054886 0.059565317 0.34837958
0.0015124709 0.059994679 0.35089079
0.0025415856 0.060489736 0.35378623
0.0035953331 0.061120659 0.35747632
0.0047004167 0.062149957 0.36349636
-0.091036841 0.060193758 0.34623605
-0.089123189 0.059579588 0.34270334
-0.087437637 0.059105888 0.33997861
-0.085899808 0.058722466 0.33777314
-0.084468327 0.058403816 0.33594027
-0.083115071 0.058132503 0.33437967
-0.081788756 0.057873916 0.33289227
-0.080543771 0.057667434 0.33170459
-0.079307638 0.05746242 0.33052534
-0.078093976 0.057268914 0.32941228
-0.076942898 0.057117123 0.32853916
-0.075807855 0.056973603 0.32771364
-0.074679606 0.056831647 0.32689711
-0.073556967 0.056690399 0.32608464
-0.072451182 0.056558669 0.32532692
-0.071389243 0.056458157 0.32474878
-0.070341259 0.056366175 0.3242197
-0.069296695 0.056274496 0.32369235
-0.068255521 0.056183115 0.32316673
-0.067217715 0.056092024 0.32264277
-0.066190332 0.056007203 0.32215488
-0.065184988 0.055938892 0.32176197
-0.064183801 0.055872232 0.32137853
-0.063184999 0.055805732 0.32099602
-0.062188573 0.055739388 0.3206144
-0.061198987 0.055677276 0.32025713
-0.060230326 0.055632591 0.32000011
-0.059267279 0.055591792 0.31976542
-0.058306932 0.055552274 0.31953812
-0.057348166 0.055513024 0.31931236
-0.056390759 0.055473834 0.31908694
-0.0554347 0.0554347 0.31886184
-0.054480001 0.055395629 0.3186371
-0.053542096 0.055372596 0.3185046
-0.052605387 0.055350017 0.31837472
-0.051672708 0.055330954 0.31826508
-0.050745901 0.055317603 0.31818828
-0.049823835 0.055309027 0.31813896
-0.048901901 0.05530028 0.31808865
-0.047980253 0.05529153 0.31803831
-0.047062982 0.055287581 0.31801561
-0.046153802 0.055293169 0.31804773
-0.045244429 0.055298749 0.31807983
-0.044334725 0.05530414 0.31811085
-0.043424718 0.055309378 0.31814098
-0.042515747 0.055316187 0.31818014
-0.041615691 0.055335149 0.31828922
-0.04071502 0.05535413 0.31839839
-0.039813247 0.055372443 0.31850374
-0.038910657 0.055390466 0.31860739
-0.038013961 0.055417947 0.31876546
-0.037118509 0.05544864 0.31894201
-0.03622159 0.05547864 0.31911457
-0.035323597 0.055508513 0.31928641
-0.034424644 0.055538423 0.31945845
-0.033530094 0.055577278 0.31968194
-0.032638937 0.055624105 0.3199513
-0.031746197 0.055670865 0.32022026
-0.030851929 0.055717662 0.32048944
-0.029957255 0.055766582 0.32077083
-0.029064873 0.055823009 0.32109541
-0.028170684 0.055879552 0.32142064
-0.027275538 0.055937964 0.32175663
-0.026382677 0.056005333 0.32214412
-0.025489526 0.056076955 0.32255611
-0.024594085 0.056148764 0.32296914
-0.02369635 0.056220751 0.32338321
-0.022796599 0.056293644 0.3238025
-0.021899266 0.056378964 0.32429326
-0.02100151 0.056470726 0.32482108
-0.020100346 0.05656144 0.32534286
-0.019196283 0.056652445 0.32586634
-0.018290551 0.056747608 0.32641372
-0.017386846 0.056859683 0.32705837
-0.016479561 0.056972198 0.32770556
-0.015568771 0.057085495 0.32835725
-0.014659058 0.057217617 0.32911721
-0.013745124 0.057350349 0.32988068
-0.012826942 0.057483699 0.33064774
-0.011905326 0.057621773 0.33144194
-0.010979992 0.05776431 0.3322618
-0.010050071 0.057907552 0.33308575
-0.0091185998 0.058071081 0.33402637
-0.0081833461 0.058246169 0.33503348
-0.0072428691 0.05842581 0.33606678
-0.006298556 0.058625024 0.33721265
-0.0053488985 0.058837883 0.33843702
-0.0043923059 0.059052113 0.33966929
-0.0034305591 0.059299666 0.34109321
-0.0024614702 0.059567578 0.34263426
-0.0014835887 0.059838079 0.34419018
-0.00049727451 0.060170215 0.34610063
0.00050017569 0.06052126 0.34811985
0.0015111488 0.060949665 0.35058406
0.0025386014 0.061434153 0.35337085
0.0035900485 0.062056553 0.35695091
0.004688554 0.063035004 0.36257896
-0.09130504 0.061368961 0.34725609
-0.089233786 0.060639534 0.34312862
-0.087509073 0.060131934 0.34025636
-0.085969523 0.059741534 0.3380473
-0.084515139 0.059402071 0.33612645
-0.083173722 0.059135076 0.33461565
-0.081824072 0.058855914 0.33303601
-0.080577999 0.058645524 0.33184552
-0.079342678 0.058438022 0.33067137
-0.078130499 0.058242731 0.32956633
-0.076970167 0.058081783 0.3286556
-0.07583198 0.057933748 0.32781795
-0.074703313 0.057789352 0.32700089
-0.073580258 0.057645679 0.32618791
-0.07247439 0.057511933 0.32543111
-0.071404487 0.057403605 0.32481813
-0.070356257 0.057310063 0.32428882
-0.06931144 0.057216827 0.32376125
-0.06827002 0.057123896 0.32323539
-0.067231975 0.057031263 0.32271123
-0.066205814 0.056946263 0.32223025
-0.06519378 0.056871168 0.32180533
-0.064192444 0.056803383 0.32142177
-0.063193493 0.056735761 0.32103914
-0.062196918 0.056668304 0.32065743
-0.06120855 0.056606404 0.32030717
-0.060236268 0.056557715 0.32003167
-0.059273124 0.056516234 0.31979695
-0.058311392 0.056474812 0.31956255
-0.057352118 0.056434482 0.31933436
-0.05639464 0.05639464 0.3191089
-0.055438511 0.056354851 0.31888375
-0.05448373 0.056315117 0.31865892
-0.053544231 0.056290086 0.3185173
-0.052608635 0.056268368 0.31839439
-0.051675901 0.056248993 0.31828475
-0.050747719 0.056233961 0.31819969
-0.049825616 0.056225237 0.31815034
-0.048903745 0.056216452 0.31810063
-0.047982067 0.056207564 0.31805032
-0.047063477 0.056202017 0.31801894
-0.046154287 0.056207694 0.31805107
-0.04524491 0.056213371 0.3180832
-0.044335078 0.056218706 0.31811339
-0.043425065 0.056224033 0.31814352
-0.042514879 0.056229357 0.31817365
-0.041614637 0.056248356 0.31828114
-0.040713988 0.056267645 0.31839031
-0.03981271 0.056286935 0.31849945
-0.038910132 0.056305252 0.3186031
-0.038012501 0.05633178 0.31875321
-0.037116922 0.056362733 0.31892836
-0.03621994 0.056393072 0.31910002
-0.035321992 0.056423441 0.31927186
-0.034423072 0.056453839 0.31944388
-0.033526663 0.056490127 0.31964922
-0.032635592 0.056537718 0.31991851
-0.031742997 0.056585345 0.32018802
-0.030848818 0.056632906 0.32045713
-0.029954385 0.056682914 0.3207401
-0.029062087 0.056740265 0.32106462
-0.02816798 0.056797732 0.32138979
-0.027272061 0.056855313 0.32171562
-0.026379611 0.056924425 0.32210669
-0.025486559 0.056997214 0.32251856
-0.024591221 0.057070188 0.3229315
-0.023693584 0.057143349 0.32334548
-0.022793645 0.0572167 0.32376054
-0.021895252 0.05730034 0.3242338
-0.020997154 0.057392217 0.3247537
-0.020096172 0.0574844 0.3252753
-0.01919229 0.057576869 0.32579854
-0.018286211 0.057671897 0.32633626
-0.017382711 0.057785768 0.32698059
-0.016475635 0.05790009 0.32762748
-0.015565192 0.058015715 0.32828176
-0.01465568 0.058149956 0.32904136
-0.013741951 0.058284827 0.32980451
-0.012823973 0.058420319 0.3305712
-0.01190175 0.058556609 0.3313424
-0.010976686 0.058701411 0.33216175
-0.010047038 0.058846939 0.33298522
-0.0091154007 0.059010226 0.33390918
-0.0081802653 0.059186626 0.33490735
-0.0072400835 0.059368685 0.33593753
-0.0062958142 0.059568089 0.33706585
-0.0053465613 0.059784275 0.33828914
-0.0043903855 0.060001936 0.33952078
-0.0034288047 0.060248997 0.34091878
-0.0024602085 0.06052113 0.34245864
-0.0014828249 0.060795821 0.34401298
-0.00049693341 0.061122812 0.34586325
0.00049980311 0.06147578 0.34786052
0.0015098288 0.061902981 0.35027784
0.0025356924 0.062378034 0.35296592
0.0035857959 0.063007556 0.35652807
0.0046782671 0.063936315 0.36178344
-0.091570728 0.06254831 0.34826657
-0.089344665 0.061702114 0.34355497
-0.087586865 0.06116401 0.34055883
-0.086039357 0.06076226 0.33832189
-0.084562004 0.060401432 0.33631283
-0.083223321 0.060132455 0.33481517
-0.081881583 0.059854958 0.33327007
-0.080612242 0.059624437 0.33198655
-0.079379931 0.059416115 0.33082661
-0.078167044 0.059217457 0.3297205
-0.076997459 0.059047133 0.32877213
-0.07585796 0.058895931 0.32793024
-0.074727036 0.058747672 0.32710475
-0.073603563 0.058601566 0.32629123
-0.072497606 0.058465809 0.32553536
-0.071422666 0.058351852 0.32490084
-0.070371255 0.05825435 0.32435796
-0.069326192 0.05815956 0.32383016
-0.068284526 0.058065072 0.32330406
-0.067246236 0.057970896 0.32277969
-0.066221304 0.057885759 0.32230565
-0.065202564 0.05780369 0.32184869
-0.064201079 0.057734787 0.32146505
-0.063201994 0.057666048 0.32108232
-0.062205274 0.057597473 0.3207005
-0.061218113 0.05753582 0.3203572
-0.060242213 0.057483029 0.32006326
-0.059278969 0.057440862 0.31982848
-0.058317132 0.057398755 0.31959403
-0.057356715 0.057356715 0.31935996
-0.056398515 0.057315566 0.31913084
-0.055442322 0.057275128 0.31890568
-0.054487474 0.057234742 0.31868082
-0.053546369 0.057207659 0.31853002
-0.052611891 0.057186838 0.31841409
-0.051679097 0.057167143 0.31830442
-0.05074954 0.057150383 0.31821111
-0.049827404 0.05714152 0.31816176
-0.048905559 0.057132661 0.31811243
-0.047983874 0.057123657 0.31806231
-0.047063973 0.057116471 0.31802228
-0.046154771 0.057122238 0.31805441
-0.045245282 0.057127882 0.31808582
-0.044335432 0.057133287 0.31811592
-0.043425407 0.057138693 0.31814602
-0.042515215 0.057144105 0.31817615
-0.041613579 0.05716151 0.31827307
-0.040712956 0.057181116 0.31838223
-0.039811712 0.057200734 0.31849146
-0.03890961 0.057220012 0.31859881
-0.038011041 0.057245545 0.31874096
-0.037115231 0.057276595 0.31891385
-0.036218289 0.057307418 0.31908548
-0.035320379 0.057338275 0.31925729
-0.034421504 0.057369169 0.31942931
-0.033523228 0.05740279 0.3196165
-0.032632254 0.057451148 0.31988576
-0.031739771 0.057499584 0.32015544
-0.030845709 0.057547964 0.32042482
-0.029951517 0.057599068 0.32070938
-0.0290593 0.057657342 0.32103384
-0.028165277 0.057715733 0.32135895
-0.027269442 0.057774238 0.32168472
-0.026376409 0.057843003 0.32206759
-0.025483435 0.057916898 0.32247904
-0.024588177 0.057990983 0.32289153
-0.023690624 0.058065254 0.32330507
-0.022790771 0.058139723 0.32371971
-0.021890718 0.058219999 0.32416669
-0.020992801 0.058313336 0.32468638
-0.020091997 0.058406971 0.32520774
-0.019188298 0.058500905 0.32573077
-0.018281873 0.058595747 0.32625884
-0.01737858 0.058711421 0.3269029
-0.016471712 0.058827542 0.32754946
-0.015561614 0.058945511 0.3282063
-0.014652304 0.059081875 0.32896557
-0.013738777 0.059218869 0.32972836
-0.012821005 0.059356503 0.3304947
-0.011898954 0.059494775 0.33126459
-0.010973383 0.059637953 0.3320618
-0.010044006 0.05978575 0.33288473
-0.0091122044 0.059948716 0.33379212
-0.0081773885 0.060127858 0.33478957
-0.0072373003 0.060310837 0.3358084
-0.0062930747 0.060510334 0.33691919
-0.0053442265 0.060729846 0.33814141
-0.0043884674 0.060950939 0.33937246
-0.0034270519 0.061197355 0.3407445
-0.0024589484 0.061473709 0.34228322
-0.0014820618 0.061752576 0.34383595
-0.00049659284 0.062074106 0.34562621
0.00049945404 0.062431753 0.34761757
0.0015085114 0.06285464 0.34997219
0.0025330696 0.063326739 0.35260081
0.003581228 0.063950501 0.35607389
0.0046673925 0.064824902 0.36094251
-0.091829062 0.063728362 0.34924906
-0.089455813 0.062767334 0.34398237
-0.087694876 0.06221927 0.3409788
-0.086109303 0.061784644 0.33859694
-0.084616736 0.061407577 0.33653051
-0.083269291 0.061128326 0.33500013
-0.081939176 0.060855411 0.3335045
-0.080646515 0.060604189 0.33212772
-0.079417206 0.060395122 0.33098197
-0.078203633 0.060193099 0.32987484
-0.077024773 0.060013164 0.32888874
-0.075884797 0.059859436 0.32804626
-0.074750774 0.059706591 0.32720864
-0.073626883 0.059558056 0.32639462
-0.072520837 0.059420295 0.32563967
-0.071445502 0.059304439 0.32500473
-0.070386261 0.059199043 0.32442713
-0.069340959 0.059102695 0.32389912
-0.06829904 0.059006654 0.32337278
-0.067260504 0.058910925 0.32284817
-0.066236809 0.058825701 0.32238111
-0.065216318 0.05874094 0.32191661
-0.064209722 0.058666438 0.32150832
-0.063210487 0.058596581 0.32112548
-0.062213626 0.058526892 0.32074356
-0.061227676 0.058465522 0.32040724
-0.060248155 0.058408514 0.32009482
-0.059284814 0.058365669 0.31986001
-0.05832288 0.05832288 0.31962553
-0.057362363 0.058280159 0.3193914
-0.056403246 0.058237497 0.3191576
-0.055446133 0.058195528 0.31892759
-0.054491214 0.05815449 0.3187027
-0.053548638 0.058125447 0.31854352
-0.05261514 0.058105417 0.31843376
-0.051682286 0.058085401 0.31832406
-0.050751362 0.058066871 0.31822252
-0.049829192 0.058057867 0.31817317
-0.04890731 0.058048859 0.31812382
-0.047985684 0.058039829 0.31807432
-0.047064465 0.058030941 0.31802562
-0.046155255 0.058036804 0.31805775
-0.045245636 0.058042385 0.31808832
-0.044335783 0.058047883 0.31811845
-0.043425754 0.058053374 0.31814855
-0.042515554 0.058058873 0.31817868
-0.041612525 0.05807462 0.31826499
-0.040711921 0.058094542 0.31837416
-0.039810702 0.058114473 0.31848338
-0.038908858 0.058134414 0.31859267
-0.03800948 0.058159087 0.31872788
-0.03711354 0.058190364 0.3188993
-0.036216639 0.058221683 0.31907094
-0.03531877 0.058253035 0.31924275
-0.034419931 0.058284417 0.31941473
-0.033520125 0.058315832 0.3195869
-0.032628909 0.058364384 0.31985298
-0.031736515 0.058413588 0.32012263
-0.030842599 0.058462836 0.32039252
-0.02994865 0.058515053 0.32067868
-0.029056514 0.058574241 0.32100305
-0.028162464 0.058633327 0.32132685
-0.027266111 0.058691461 0.32164544
-0.026371974 0.058758609 0.32201344
-0.025479145 0.058833662 0.32242474
-0.024584031 0.058908902 0.32283708
-0.023686625 0.058984339 0.3232505
-0.022786919 0.059059974 0.32366499
-0.02188682 0.05914098 0.32410893
-0.020988448 0.059234064 0.32461905
-0.020087825 0.05932916 0.32514021
-0.019184304 0.059424553 0.325663
-0.018277876 0.059520267 0.32618752
-0.01737445 0.059636623 0.3268252
-0.016467789 0.05975455 0.32747146
-0.01555763 0.059873302 0.32812226
-0.01464893 0.060013361 0.32888982
-0.013735606 0.060152482 0.32965225
-0.012818038 0.060292255 0.33041823
-0.011896196 0.060432676 0.33118778
-0.010970081 0.060573924 0.33196187
-0.010040976 0.060724001 0.33278432
-0.0091090109 0.060886547 0.33367512
-0.0081745144 0.061068431 0.33467188
-0.0072345198 0.06125227 0.33567938
-0.0062903375 0.061451759 0.33677265
-0.0053418935 0.061674587 0.3379938
-0.0043865456 0.061899032 0.33922383
-0.0034253048 0.062144816 0.34057078
-0.0024576895 0.062425312 0.34210798
-0.0014812996 0.062708348 0.3436591
-0.00049625273 0.063024096 0.34538949
0.00049911113 0.063387111 0.34737891
0.0015070356 0.063797839 0.34962982
0.0025305073 0.064274885 0.35224414
0.0035761495 0.064881571 0.35556895
0.0046565686 0.06570936 0.36010545
-0.092088856 0.064915091 0.35023713
-0.089567229 0.063835211 0.34441081
-0.087803155 0.063277133 0.34139982
-0.086179368 0.062808692 0.33887243
-0.084678546 0.062420186 0.33677632
-0.083315305 0.062125288 0.33518526
-0.081986628 0.061849561 0.33369762
-0.080680825 0.061584774 0.33226901
-0.079454519 0.061375048 0.33113748
-0.078240253 0.061169654 0.33002931
-0.077052094 0.06097988 0.32900542
-0.075911649 0.060823619 0.32816234
-0.074777022 0.060668152 0.32732356
-0.073650226 0.060515154 0.32649809
-0.072544083 0.0603754 0.32574406
-0.071468361 0.06025764 0.32510871
-0.070401274 0.060144138 0.32449633
-0.069355719 0.06004623 0.32396808
-0.068313561 0.059948634 0.32344154
-0.067276023 0.059852462 0.32292265
-0.066252321 0.05976608 0.3224566
-0.065231569 0.059679944 0.32199186
-0.064218372 0.059598345 0.32155162
-0.063218988 0.059527367 0.32116866
-0.062221985 0.059456564 0.32078665
-0.061237242 0.059395518 0.32045731
-0.060255058 0.059335135 0.32013151
-0.059290659 0.059290659 0.31989154
-0.058328629 0.059247192 0.31965703
-0.05736801 0.059203785 0.31942284
-0.056408796 0.059160445 0.31918901
-0.055450987 0.059117168 0.31895551
-0.054494962 0.059074368 0.3187246
-0.05355195 0.059044458 0.31856322
-0.052618392 0.05902411 0.31845343
-0.051685479 0.059003774 0.31834373
-0.05075321 0.05898346 0.31823412
-0.049830981 0.058974277 0.31818458
-0.048909064 0.058965132 0.31813523
-0.047987435 0.05895599 0.31808591
-0.047065999 0.058946736 0.31803599
-0.046155691 0.058951329 0.31806076
-0.045245998 0.058956906 0.31809086
-0.044336133 0.058962487 0.31812096
-0.0434261 0.058968071 0.31815109
-0.042515893 0.058973655 0.31818122
-0.041611467 0.058987685 0.31825691
-0.040710885 0.059007913 0.31836605
-0.039809689 0.059028156 0.31847528
-0.038907874 0.059048418 0.31858459
-0.038007673 0.059072167 0.31871271
-0.037111852 0.059104059 0.31888479
-0.036214989 0.059135865 0.31905639
-0.03531716 0.059167709 0.3192282
-0.034418363 0.059199583 0.31940016
-0.033518597 0.059231494 0.31957233
-0.032625567 0.059277438 0.31982023
-0.031733263 0.059327405 0.32008982
-0.030839454 0.059377458 0.32035986
-0.02994578 0.059430856 0.32064795
-0.029053381 0.059490256 0.32096845
-0.028158912 0.059549175 0.32128632
-0.027262671 0.05960821 0.32160485
-0.026368268 0.059675552 0.32196817
-0.025474856 0.059750117 0.32237047
-0.024579888 0.059826519 0.3227827
-0.023682628 0.059903119 0.32319596
-0.022783069 0.059979916 0.32361031
-0.02188324 0.060062513 0.32405594
-0.020984141 0.060154539 0.32455245
-0.020083653 0.06025096 0.32507268
-0.019180316 0.060347825 0.32559529
-0.018274069 0.060444999 0.32611957
-0.017370321 0.060561389 0.32674754
-0.016463868 0.060681116 0.3273935
-0.015554022 0.060802087 0.32804617
-0.014643415 0.060935501 0.32876599
-0.013731877 0.061083179 0.32956275
-0.012815072 0.061227567 0.33034179
-0.011893437 0.061370138 0.33111098
-0.0109675 0.061513368 0.33188376
-0.010037948 0.061661679 0.33268395
-0.0091058193 0.061823718 0.3335582
-0.0081716413 0.06200834 0.33455428
-0.0072318674 0.062194061 0.3355563
-0.0062876027 0.062392365 0.33662623
-0.0053395624 0.062618501 0.33784631
-0.0043846248 0.062846288 0.33907527
-0.0034235537 0.063091204 0.34039667
-0.0024564289 0.063375868 0.34193254
-0.0014805375 0.06366311 0.34348229
-0.00049591437 0.06397295 0.34515399
0.00049877277 0.064341694 0.34714344
0.0015056392 0.064742483 0.34930584
0.0025279501 0.065221116 0.35188821
0.0035710854 0.065810002 0.35506544
0.0046457946 0.066589721 0.35927227
0.0058357865 0.068437859 0.36924353
-0.092754126 0.066397764 0.35276732
-0.089678936 0.064905748 0.34484035
-0.087911703 0.064337611 0.34182188
-0.086249545 0.063834406 0.33914837
-0.084740438 0.063434273 0.33702248
-0.083361372 0.063123353 0.33537057
-0.082031757 0.062843047 0.33388132
-0.080715165 0.062566191 0.33241042
-0.079491869 0.062355898 0.33129314
-0.07827691 0.062147122 0.33018392
-0.077079445 0.061947286 0.32912222
-0.075938523 0.061788484 0.32827851
-0.074803434 0.061630502 0.32743916
-0.073674135 0.061473321 0.32660407
-0.072567344 0.061331112 0.32584852
-0.071491241 0.061211452 0.32521278
-0.070419319 0.061092254 0.32457948
-0.069370493 0.060990162 0.32403708
-0.06832809 0.060891017 0.32351032
-0.067291796 0.060794659 0.32299837
-0.066267833 0.060706895 0.32253209
-0.06524682 0.060619388 0.32206717
-0.064228751 0.06053213 0.32160357
-0.06322749 0.060458403 0.32121187
-0.062231153 0.060387265 0.32083392
-0.061246809 0.060325805 0.32050738
-0.060264464 0.060264464 0.32018149
-0.059296507 0.060215831 0.3199231
-0.058334377 0.060171682 0.31968853
-0.057373662 0.060127597 0.31945431
-0.056414347 0.060083576 0.31922042
-0.055456437 0.060039613 0.31898686
-0.054499928 0.059995718 0.31875366
-0.053555261 0.059963584 0.31858292
-0.052621648 0.05994292 0.31847313
-0.051688671 0.059922267 0.3183634
-0.050756346 0.059901632 0.31825379
-0.049832769 0.059890758 0.318196
-0.048910819 0.059881467 0.31814665
-0.047989156 0.059872184 0.31809732
-0.047067773 0.059862897 0.31804797
-0.046156053 0.059865773 0.31806326
-0.045246359 0.059871443 0.31809339
-0.044336487 0.059877109 0.31812349
-0.043426443 0.059882782 0.31815362
-0.042516224 0.059888445 0.31818372
-0.041610412 0.059900701 0.31824884
-0.040709853 0.059921246 0.31835797
-0.039808679 0.059941802 0.3184672
-0.038906883 0.059962373 0.31857648
-0.038004525 0.059983041 0.31868631
-0.037110161 0.060017671 0.31887028
-0.036213338 0.06004997 0.31904188
-0.035315547 0.060082294 0.31921363
-0.034416791 0.060114663 0.31938559
-0.033517066 0.060147066 0.31955776
-0.032622226 0.060190305 0.31978747
-0.031730011 0.060241036 0.320057
-0.03083629 0.060291849 0.32032698
-0.029942315 0.060345281 0.32061085
-0.029049721 0.060404975 0.32092801
-0.028155362 0.060464792 0.32124582
-0.027259229 0.060524728 0.32156426
-0.02636476 0.060592692 0.32192534
-0.02547057 0.060666267 0.32231623
-0.024575748 0.060743827 0.32272831
-0.023678632 0.060821585 0.32314143
-0.022779221 0.060899548 0.32355565
-0.021879664 0.060983747 0.32400298
-0.020980706 0.06107717 0.32449934
-0.020079484 0.061172385 0.3250052
-0.019176327 0.061270706 0.32552758
-0.018270263 0.061369345 0.32605165
-0.017366195 0.061485719 0.32666993
-0.016459951 0.061607245 0.3273156
-0.015550416 0.061730441 0.32797012
-0.014637702 0.061856095 0.32863772
-0.013726508 0.062005948 0.32943389
-0.012810888 0.062156528 0.3302339
-0.011890681 0.062307168 0.33103424
-0.010964951 0.062452551 0.33180666
-0.010034923 0.062598802 0.33258367
-0.0091026295 0.062760241 0.33344138
-0.0081687709 0.062947586 0.33443674
-0.0072293193 0.063136056 0.33543807
-0.0062848702 0.063332155 0.33647993
-0.0053372337 0.063561603 0.33769897
-0.00438271 0.06379278 0.33892721
-0.0034219951 0.064040191 0.3402417
-0.0024550215 0.064321563 0.34173661
-0.0014796854 0.064612925 0.34328461
-0.00049555354 0.064917512 0.34490284
0.00049843499 0.065294981 0.34690833
0.0015043434 0.065689661 0.34900522
0.002525398 0.066165432 0.35153297
0.0035660353 0.066735804 0.35456333
0.0046391971 0.067526095 0.35876209
0.0057675466 0.068686239 0.36492586
-0.089790918 0.065978967 0.34527096
-0.088020511 0.065400712 0.34224495
-0.086319834 0.064861797 0.33942476
-0.084802419 0.064449839 0.33726898
-0.083407491 0.06412252 0.33555612
-0.082076937 0.063837618 0.3340652
-0.080760032 0.063556708 0.3325952
-0.079529256 0.063337669 0.33144894
-0.078313597 0.063125506 0.33033869
-0.077106819 0.062915377 0.32923907
-0.075965412 0.062754035 0.32839477
-0.074829854 0.062593527 0.32755482
-0.073700093 0.062433835 0.32671914
-0.072590627 0.062287439 0.32595304
-0.071514122 0.062165871 0.32531688
-0.07044182 0.062044777 0.32468319
-0.069385275 0.061934505 0.32410613
-0.068342619 0.061833803 0.32357913
-0.067307584 0.061737303 0.32307416
-0.066283353 0.061648153 0.32260764
-0.065262079 0.061559267 0.32214248
-0.064243749 0.061470639 0.3216787
-0.063235998 0.061389692 0.32125509
-0.062240891 0.061318807 0.32088414
-0.061256383 0.061256383 0.32055748
-0.060273878 0.061194092 0.3202315
-0.059302356 0.061141189 0.31995466
-0.058340132 0.061096359 0.31972006
-0.057379313 0.061051589 0.31948578
-0.056419898 0.061006885 0.31925184
-0.055461891 0.060962245 0.31901824
-0.054505289 0.060917675 0.31878501
-0.053558573 0.060882822 0.31860262
-0.052624896 0.060861837 0.3184928
-0.051691871 0.060840875 0.3183831
-0.050759479 0.060819916 0.31827343
-0.049834549 0.060807295 0.31820738
-0.048912574 0.06079787 0.31815806
-0.047990873 0.060788438 0.31810871
-0.04706946 0.060779013 0.31805938
-0.046156421 0.060780238 0.31806579
-0.045246713 0.06078599 0.31809589
-0.044336841 0.06079175 0.31812602
-0.043426786 0.060797501 0.31815612
-0.042516563 0.060803257 0.31818625
-0.041609354 0.060813673 0.31824076
-0.040708821 0.060834531 0.3183499
-0.03980767 0.0608554 0.31845912
-0.038905893 0.06087628 0.31856838
-0.038003504 0.060897179 0.31867775
-0.037107486 0.060929578 0.3188473
-0.036211688 0.060963985 0.31902733
-0.035313938 0.060996804 0.31919909
-0.034415223 0.061029665 0.31937104
-0.033515535 0.061062552 0.31954315
-0.032618884 0.061102983 0.31975472
-0.031726759 0.061154477 0.32002419
-0.030833129 0.061206061 0.32029414
-0.02993937 0.061260555 0.32057932
-0.029046062 0.061319467 0.3208876
-0.028151812 0.061380181 0.32120532
-0.027255788 0.061441015 0.32152367
-0.026361255 0.061509594 0.32188255
-0.025467098 0.061584074 0.3222723
-0.024571605 0.061660819 0.32267392
-0.023674637 0.061739743 0.32308692
-0.022775372 0.061818868 0.32350099
-0.021876087 0.061904676 0.32395002
-0.020977272 0.061999492 0.3244462
-0.020075699 0.062094603 0.32494393
-0.019172342 0.062193207 0.32545993
-0.01826646 0.06229331 0.32598376
-0.017362071 0.062409606 0.32659236
-0.016456112 0.06253323 0.32723927
-0.015546811 0.062658362 0.32789409
-0.014633863 0.062783994 0.32855153
-0.013721142 0.062927999 0.32930511
-0.012805868 0.063080758 0.3301045
-0.011886138 0.063234255 0.33090779
-0.010961923 0.063388512 0.33171499
-0.010032556 0.06353952 0.33250526
-0.0090994434 0.063696101 0.33332464
-0.0081659015 0.063886173 0.33431929
-0.0072267726 0.064077385 0.33531991
-0.0062821405 0.06427113 0.33633378
-0.0053349147 0.064503968 0.33755225
-0.0043808008 0.064738505 0.33877957
-0.0034206372 0.064992107 0.3401067
-0.002453798 0.065271027 0.34156629
-0.0014788342 0.065561652 0.34308714
-0.00049518654 0.06585981 0.34464741
0.00049809762 0.066246986 0.34667352
0.0015030501 0.066635221 0.34870517
0.0025230322 0.067112662 0.35120365
0.0035609999 0.067658998 0.35406265
0.0046333093 0.068470016 0.35830677
0.0057074074 0.069007739 0.3611207
0.006862876 0.070212506 0.36742526
-0.089944027 0.067085326 0.34585971
-0.088129595 0.066466451 0.3426691
-0.086390235 0.065890856 0.33970159
-0.084864497 0.065466896 0.33751586
-0.083453663 0.065122806 0.33574188
-0.082122177 0.064833298 0.33424932
-0.080806136 0.064549282 0.33278507
-0.079560705 0.064315535 0.33158001
-0.078350291 0.064104781 0.33049345
-0.077142097 0.063890696 0.32938972
-0.075992331 0.063720271 0.32851112
-0.074856296 0.06355723 0.32767054
-0.07372611 0.063395068 0.3268345
-0.072608374 0.063239552 0.32603276
-0.071537025 0.063120909 0.32542107
-0.070464328 0.062997907 0.32478696
-0.069400057 0.062879242 0.32417518
-0.068357162 0.062776983 0.32364798
-0.067323379 0.062680386 0.32314995
-0.066298887 0.062589861 0.32268324
-0.065277345 0.06249959 0.32221785
-0.064258754 0.062409583 0.32175383
-0.063244507 0.062321227 0.3212983
-0.062250629 0.062250629 0.32093433
-0.06126596 0.062187254 0.3206076
-0.060283292 0.062124003 0.32028151
-0.059308205 0.062066726 0.31998622
-0.05834588 0.062021211 0.31975156
-0.057384964 0.061975762 0.31951725
-0.056425456 0.061930377 0.31928328
-0.055467349 0.061885059 0.31904963
-0.054510497 0.06183964 0.31881547
-0.053561904 0.061802197 0.31862244
-0.052628152 0.061780874 0.3185125
-0.051695064 0.061759587 0.31840277
-0.050762616 0.061738316 0.31829309
-0.049836338 0.061723907 0.3182188
-0.048914321 0.061714333 0.31816944
-0.047992595 0.061704766 0.31812012
-0.04707076 0.061694685 0.31806815
-0.046155293 0.061692718 0.31805801
-0.045247074 0.061700556 0.31809843
-0.044337187 0.061706394 0.31812853
-0.043427132 0.061712239 0.31815866
-0.042516902 0.061718084 0.31818879
-0.0416083 0.0617266 0.31823269
-0.040707786 0.061747767 0.31834182
-0.039806657 0.061768949 0.31845102
-0.038904905 0.061790146 0.3185603
-0.038002536 0.061811354 0.31866965
-0.037104413 0.061840687 0.31882086
-0.03620955 0.061877079 0.3190085
-0.035312328 0.061911229 0.31918454
-0.034413654 0.061944578 0.31935647
-0.033514008 0.06197796 0.31952858
-0.032615546 0.062015478 0.319722
-0.031723507 0.062067732 0.31999141
-0.030829966 0.062120084 0.3202613
-0.029936723 0.062176272 0.32055098
-0.029042404 0.062233724 0.32084718
-0.028148266 0.06229534 0.32116485
-0.02725235 0.062357072 0.32148311
-0.026357753 0.062426254 0.32183978
-0.02546371 0.062501833 0.32222942
-0.0245675 0.06257759 0.32262
-0.023670645 0.062657595 0.32303244
-0.022771526 0.062737882 0.32344636
-0.021872515 0.062825307 0.32389709
-0.020973841 0.062921517 0.32439312
-0.020072408 0.063018031 0.32489067
-0.019168356 0.063115321 0.32539228
-0.018262656 0.063216887 0.3259159
-0.017357951 0.063333064 0.32651484
-0.016452307 0.063458897 0.32716358
-0.015543209 0.063585855 0.32781813
-0.014630466 0.06371332 0.32847527
-0.01371578 0.063849322 0.32917643
-0.012800851 0.064004257 0.32997519
-0.011881472 0.064159945 0.33077785
-0.010957608 0.064316392 0.33158442
-0.010029227 0.064473607 0.33239493
-0.0090962583 0.064631306 0.33320796
-0.008162966 0.064823553 0.3341991
-0.0072240951 0.065016851 0.33519566
-0.0062798033 0.065213345 0.33620867
-0.0053326008 0.065445557 0.33740583
-0.0043788939 0.06568341 0.33863211
-0.0034192805 0.065943271 0.33997181
-0.0024528205 0.066226155 0.34143022
-0.0014780329 0.066511482 0.34290123
-0.00049490057 0.066811576 0.34444839
0.00049771782 0.067191906 0.34640917
0.0015019216 0.067586467 0.34844336
0.0025208495 0.068062931 0.35089979
0.0035561267 0.068582445 0.35357812
0.0046045356 0.069068037 0.3560816
0.0056638522 0.069510914 0.35836488
0.0068262923 0.070888415 0.36546662
-0.090162016 0.068244182 0.34669793
-0.088238947 0.067534834 0.34309429
-0.08649312 0.066946648 0.34010616
-0.084929243 0.066487469 0.33777338
-0.083499879 0.066124186 0.33592781
-0.082167454 0.065830067 0.33443362
-0.0808523 0.065542988 0.33297518
-0.079591937 0.065293983 0.33171019
-0.07838095 0.065079942 0.33062279
-0.077177875 0.064867295 0.32954249
-0.076019272 0.064687207 0.32862762
-0.074882835 0.064521685 0.32778671
-0.073752187 0.064357005 0.3269501
-0.072627306 0.064193167 0.32611775
-0.071555197 0.064072303 0.32550374
-0.070486866 0.063951656 0.32489082
-0.069417953 0.063827246 0.32425877
-0.068371706 0.063720569 0.32371685
-0.067339174 0.063623913 0.3232258
-0.066314422 0.063532002 0.32275885
-0.065292627 0.063440353 0.32229325
-0.064273775 0.063348971 0.32182902
-0.063257851 0.063257851 0.3213661
-0.062260374 0.063182749 0.32098457
-0.061275534 0.063118406 0.3206577
-0.060292702 0.063054204 0.32033151
-0.059314057 0.062992446 0.32001778
-0.058351632 0.062946253 0.31978309
-0.057390619 0.062900119 0.31954873
-0.056431007 0.062854052 0.31931469
-0.055472806 0.062808052 0.31908101
-0.054515686 0.062761754 0.31884581
-0.053565238 0.062721685 0.31864226
-0.052631408 0.062700026 0.3185322
-0.051698256 0.062678419 0.31842244
-0.050765753 0.062656827 0.31831276
-0.049838126 0.062640578 0.31823021
-0.048916079 0.062630862 0.31818086
-0.047994316 0.062621154 0.31813154
-0.047071766 0.062610015 0.31807494
-0.046153437 0.062604167 0.31804523
-0.04524627 0.062613524 0.31809276
-0.044337541 0.062621064 0.31813106
-0.043427479 0.062626995 0.31816119
-0.042517241 0.062632926 0.31819132
-0.041607242 0.062639475 0.31822461
-0.040706754 0.062660962 0.31833375
-0.039805647 0.062682457 0.31844294
-0.038903918 0.06270396 0.3185522
-0.038001571 0.062725484 0.31866154
-0.037101336 0.062751643 0.31879443
-0.036206543 0.062788561 0.31898201
-0.035310701 0.062825531 0.31916982
-0.034412082 0.062859401 0.3193419
-0.033512481 0.062893286 0.31951401
-0.032612205 0.062927775 0.31968924
-0.031720258 0.062980801 0.31995863
-0.030826822 0.063033953 0.32022864
-0.029934073 0.063091815 0.32052261
-0.029039681 0.06314978 0.32081708
-0.028144715 0.063210264 0.32112435
-0.027248912 0.063272893 0.32144254
-0.02635425 0.063342668 0.32179701
-0.02546032 0.063419342 0.32218653
-0.024564227 0.06349621 0.32257703
-0.023666654 0.063575126 0.32297796
-0.022767682 0.063656576 0.32339174
-0.02186894 0.063745633 0.32384416
-0.020970408 0.063843243 0.32434005
-0.02006912 0.063941151 0.32483745
-0.019165061 0.06403935 0.32533634
-0.018258857 0.064140089 0.3258481
-0.017353829 0.064256072 0.32643732
-0.016448503 0.06438414 0.32708794
-0.015539608 0.064512916 0.32774216
-0.014627069 0.064642206 0.328399
-0.013710867 0.064772025 0.3290585
-0.012795839 0.064927034 0.32984599
-0.011876808 0.065084912 0.33064803
-0.010953404 0.06524419 0.33145723
-0.0100256 0.065405108 0.33227471
-0.0090940548 0.065572925 0.33312726
-0.0081598647 0.065758914 0.33407214
-0.0072213421 0.065954924 0.33506793
-0.0062775151 0.066155352 0.33608615
-0.0053302883 0.06638632 0.33725953
-0.0043769884 0.066627488 0.33848473
-0.003417925 0.066893674 0.33983701
-0.0024518438 0.067180522 0.34129429
-0.0014774418 0.067469835 0.34276408
-0.00049461494 0.067762241 0.34424958
0.00049733254 0.068134554 0.34614101
0.0015008711 0.068539783 0.34819967
0.0025171323 0.068969421 0.35038236
0.003541935 0.069320723 0.35216707
0.0045751454 0.069643877 0.35380876
0.0056359805 0.070193574 0.35660136
0.0067654797 0.07129775 0.36221084
-0.09038265 0.069409885 0.34754634
-0.088346928 0.068604596 0.34351414
-0.086599641 0.068007633 0.34052503
-0.084998176 0.06751284 0.33804753
-0.083556361 0.06713488 0.33615503
-0.082212783 0.066827938 0.33461812
-0.080898501 0.06653782 0.33316547
-0.0796232 0.066273205 0.33184049
-0.078411639 0.066055864 0.33075222
-0.07720799 0.065839946 0.32967108
-0.07604631 0.065654889 0.3287445
-0.074909396 0.065486833 0.327903
-0.073778287 0.065319628 0.3270658
-0.072652936 0.065153278 0.32623285
-0.071570344 0.065021418 0.32557261
-0.070505433 0.06490235 0.32497641
-0.069440112 0.064779699 0.32436228
-0.068386264 0.064664558 0.32378575
-0.067354985 0.064567886 0.32330167
-0.066329971 0.064474583 0.32283452
-0.065307908 0.064381555 0.32236871
-0.064288795 0.064288795 0.32190424
-0.063270912 0.064194575 0.32143247
-0.06227012 0.064115159 0.32103482
-0.06128512 0.064049862 0.32070786
-0.060302127 0.0639847 0.32038158
-0.059321128 0.063919663 0.32005593
-0.058357388 0.063871473 0.31981462
-0.05739627 0.063824654 0.3195802
-0.056436565 0.063777909 0.31934613
-0.05547826 0.063731223 0.31911239
-0.054520871 0.063684046 0.31887615
-0.053568568 0.063641287 0.31866208
-0.052634675 0.063619301 0.31855199
-0.051701456 0.063597366 0.31844214
-0.050768889 0.063575454 0.31833243
-0.049839914 0.063557319 0.31824163
-0.048917834 0.063547462 0.31819227
-0.047996033 0.063537605 0.31814292
-0.047072768 0.063525386 0.31808174
-0.046151578 0.063515536 0.31803241
-0.045244452 0.063525036 0.31807998
-0.044337049 0.063534535 0.31812754
-0.043427821 0.063541763 0.31816372
-0.042517576 0.063547775 0.31819382
-0.041607164 0.063553795 0.31822398
-0.040705722 0.063574106 0.31832567
-0.039804634 0.063595906 0.31843483
-0.038902927 0.063617729 0.31854409
-0.038000602 0.063639566 0.31865343
-0.037098259 0.063662447 0.31876799
-0.036203545 0.063699909 0.31895557
-0.035307769 0.0637374 0.31914333
-0.034410514 0.063774154 0.31932735
-0.033510949 0.063808523 0.31949943
-0.032610416 0.063842922 0.31967169
-0.031717006 0.063893683 0.31992584
-0.030824101 0.063948505 0.32020035
-0.029931424 0.0640072 0.32049423
-0.029037109 0.064066 0.32078868
-0.028141171 0.064124964 0.3210839
-0.027245477 0.064188495 0.32140201
-0.026350748 0.064258844 0.32175425
-0.025456933 0.064336613 0.32214367
-0.024560954 0.064414576 0.32253405
-0.0236628 0.064492725 0.32292536
-0.022763837 0.064574964 0.32333714
-0.02186537 0.064665668 0.3237913
-0.020966979 0.064764664 0.324287
-0.020065831 0.064863965 0.32478422
-0.019161917 0.064963572 0.32528296
-0.018255224 0.065063491 0.32578325
-0.017349774 0.065178879 0.32636103
-0.0164447 0.065308951 0.32701233
-0.015536008 0.065439552 0.32766625
-0.014623675 0.065570675 0.3283228
-0.013707656 0.065702215 0.32898146
-0.012791121 0.065850586 0.32972437
-0.011872688 0.066012144 0.33053333
-0.010949737 0.0661745 0.33134627
-0.010022236 0.06633766 0.33216321
-0.0090918951 0.066514388 0.33304814
-0.0081567662 0.066693559 0.33394527
-0.0072185909 0.066892274 0.33494028
-0.0062752282 0.067096673 0.33596373
-0.0053281225 0.067328095 0.3371225
-0.0043750848 0.067570753 0.33833751
-0.0034165701 0.067843318 0.33970231
-0.0024508678 0.068134129 0.34115842
-0.0014768512 0.068427436 0.34262708
-0.0004942767 0.068704456 0.34401417
0.00049621303 0.068973608 0.34536186
0.0014968227 0.069352783 0.34726045
0.002506007 0.069666997 0.34883374
0.0035231335 0.069959365 0.35029769
0.0045612305 0.070445672 0.35273269
0.0056248084 0.071077123 0.35589448
0.0067426814 0.07209482 0.36099026
-0.09060438 0.070581309 0.34839892
-0.088402227 0.069635272 0.34372917
-0.086706422 0.069071218 0.34094492
-0.08506722 0.06853988 0.33832213
-0.083617315 0.068150528 0.33640027
-0.082258165 0.067826912 0.33480284
-0.080944762 0.067533799 0.33335599
-0.079660729 0.067258462 0.33199689
-0.07844235 0.067032553 0.33088177
-0.077238128 0.06681335 0.32979977
-0.076069959 0.066620275 0.32884672
-0.07493598 0.06645266 0.32801935
-0.073804401 0.066282935 0.32718155
-0.072678581 0.066114068 0.32634801
-0.071585491 0.065970942 0.32564151
-0.070520334 0.065850109 0.32504508
-0.069459066 0.065729722 0.32445082
-0.068400815 0.065608941 0.32385466
-0.067370802 0.065512292 0.32337758
-0.066345036 0.065417133 0.32290784
-0.065320708 0.065320708 0.32243186
-0.064299397 0.065224566 0.32195732
-0.063281089 0.065128706 0.32148415
-0.062279351 0.065047324 0.32108241
-0.061294705 0.064981602 0.32075801
-0.060311545 0.064915478 0.32043162
-0.059330389 0.064849496 0.32010591
-0.05836314 0.064796872 0.31984615
-0.057401929 0.064749375 0.3196117
-0.056442119 0.064701945 0.31937757
-0.055483613 0.064654455 0.31914318
-0.054526057 0.06460651 0.31890649
-0.053571898 0.064561009 0.3186819
-0.05263795 0.064538702 0.31857181
-0.051704649 0.064516418 0.31846181
-0.050772026 0.064494193 0.3183521
-0.049841702 0.064474128 0.31825304
-0.048919588 0.06446413 0.31820369
-0.047997758 0.064454131 0.31815434
-0.047073781 0.064440802 0.31808856
-0.046149887 0.06442707 0.31802076
-0.04524263 0.064436473 0.31806716
-0.044335265 0.064446107 0.31811473
-0.043427628 0.06445574 0.31816229
-0.042517915 0.064462647 0.31819636
-0.041607488 0.064468749 0.31822649
-0.040704686 0.064487197 0.31831756
-0.039803624 0.064509317 0.31842676
-0.03890194 0.064531453 0.31853601
-0.037999637 0.064553596 0.31864533
-0.037096716 0.064575762 0.31875473
-0.036200538 0.064611092 0.31892911
-0.035304837 0.06464912 0.31911683
-0.034408085 0.0646872 0.31930479
-0.033509422 0.064723678 0.31948486
-0.032608926 0.064758576 0.31965712
-0.031713758 0.064806372 0.31989306
-0.030821374 0.064862892 0.32017204
-0.029928777 0.064922422 0.32046589
-0.029034538 0.064982064 0.32076028
-0.028138656 0.06504181 0.3210552
-0.02724204 0.065103859 0.32136148
-0.026347244 0.065174766 0.32171148
-0.025453547 0.065253638 0.32210082
-0.024557682 0.065332703 0.32249108
-0.023659645 0.065411955 0.32288229
-0.022759994 0.065493047 0.32328257
-0.021861797 0.06558539 0.3237384
-0.020963548 0.065685786 0.32423395
-0.020062545 0.065786488 0.32473102
-0.019158773 0.065887488 0.32522959
-0.01825219 0.06598869 0.32572913
-0.017345663 0.066101037 0.32628369
-0.016440736 0.066232681 0.3269335
-0.015532197 0.066364847 0.32758588
-0.014620028 0.066497542 0.3282409
-0.013704174 0.066630639 0.32889789
-0.012786862 0.066775836 0.32961458
-0.011868726 0.066939607 0.330423
-0.010946074 0.067104191 0.33123538
-0.010019679 0.067274988 0.33207846
-0.0090897363 0.067455411 0.33296907
-0.0081547918 0.067636803 0.33386445
-0.0072158426 0.067828923 0.33481276
-0.0062729432 0.068037309 0.33584139
-0.0053261756 0.068271883 0.3369993
-0.0043731825 0.068513192 0.33819041
-0.0034152167 0.068792224 0.33956775
-0.0024498929 0.069086976 0.3410227
-0.0014752953 0.06933888 0.34226611
-0.00049295265 0.069506325 0.34309265
0.00049504009 0.069800653 0.34454548
0.0014918119 0.070115156 0.34609795
0.0024980279 0.070444383 0.34772304
0.0035167977 0.070838355 0.34966773
0.0045535462 0.071338885 0.35213843
0.0056162667 0.071990333 0.35535404
0.0067298212 0.072992675 0.36030176
-0.090827182 0.071758494 0.34925568
-0.088501848 0.07070259 0.34411651
-0.086813472 0.070137441 0.34136584
-0.085136376 0.069568582 0.33859718
-0.083678365 0.069167666 0.33664587
-0.082303599 0.068826981 0.33498773
-0.080991082 0.06853091 0.33354673
-0.079706125 0.068251349 0.33218607
-0.078473084 0.068010002 0.33101141
-0.077268295 0.067787521 0.32992858
-0.076091655 0.067584515 0.32894051
-0.074962534 0.067419134 0.32813558
-0.07383053 0.067246914 0.32729739
-0.072704256 0.067075543 0.32646328
-0.071600638 0.066920854 0.32571042
-0.070535228 0.066798262 0.32511374
-0.069473714 0.066676117 0.32451925
-0.068416327 0.066554658 0.32392809
-0.067383289 0.066453859 0.32343751
-0.06635575 0.06635575 0.32295999
-0.065331243 0.066257931 0.3224839
-0.064309753 0.066160396 0.32200918
-0.063291267 0.066063143 0.32153586
-0.062288392 0.065979555 0.32112902
-0.061304219 0.065913558 0.32080781
-0.06032097 0.065846555 0.32048169
-0.059339646 0.065779611 0.32015586
-0.058368891 0.065722458 0.31987768
-0.057407584 0.065674275 0.3196432
-0.056447677 0.065626159 0.31940901
-0.055488896 0.06557779 0.31917357
-0.054531246 0.065529145 0.31893682
-0.053575233 0.065480836 0.31870171
-0.05264122 0.065458216 0.31859159
-0.051707856 0.065435603 0.31848156
-0.050775163 0.06541305 0.31837177
-0.04984349 0.065390997 0.31826445
-0.048921343 0.065380856 0.3182151
-0.047999091 0.065370195 0.31816319
-0.047074784 0.065356255 0.31809536
-0.046150874 0.065342322 0.31802756
-0.045240805 0.065347828 0.31805435
-0.04433348 0.065357603 0.31810191
-0.04342588 0.065367378 0.31814948
-0.042518009 0.065377153 0.31819707
-0.041607819 0.065383717 0.31822902
-0.040703654 0.06540025 0.31830949
-0.039802615 0.065422684 0.31841868
-0.038900949 0.065445125 0.31852791
-0.037998669 0.065467589 0.31863722
-0.03709577 0.065490067 0.31874663
-0.036197536 0.065522119 0.31890264
-0.035301913 0.065560691 0.31909037
-0.034405231 0.065599307 0.3192783
-0.033507489 0.065637961 0.31946644
-0.03260744 0.065674134 0.31964251
-0.031710509 0.065718882 0.31986031
-0.030818652 0.065777123 0.32014376
-0.029926131 0.065837488 0.32043755
-0.029031968 0.065897956 0.32073188
-0.02813616 0.065958545 0.32102674
-0.027238708 0.066019244 0.32132217
-0.026343744 0.06609045 0.32166874
-0.025450161 0.066170417 0.32205796
-0.024554411 0.066250585 0.32244813
-0.023656491 0.066330947 0.32283926
-0.022756387 0.066411495 0.32323131
-0.021858227 0.066504821 0.32368553
-0.02096012 0.066606604 0.32418093
-0.020058973 0.066707745 0.32467321
-0.019155087 0.066809207 0.325167
-0.018248696 0.066911884 0.32566676
-0.017341997 0.067024477 0.32621476
-0.016436618 0.067155324 0.32685161
-0.0155283 0.0672893 0.32750368
-0.014616351 0.067423813 0.32815835
-0.013700511 0.067557693 0.32880998
-0.012782605 0.067700461 0.32950485
-0.011864765 0.067866452 0.33031273
-0.010942412 0.068033256 0.33112457
-0.010017307 0.06821309 0.33199984
-0.0090875784 0.06839598 0.33289
-0.0081528518 0.068579867 0.333785
-0.0072130961 0.06876485 0.33468533
-0.0062706601 0.068977259 0.33571914
-0.0053242301 0.069214992 0.33687621
-0.0043712817 0.069454812 0.33804342
-0.0034138644 0.06974037 0.33943328
-0.0024463946 0.06996689 0.34053576
-0.0014717204 0.070152007 0.34143674
-0.00049179746 0.070327036 0.34228864
0.00049397012 0.070637733 0.34380081
0.0014892268 0.07098648 0.3454982
0.002495379 0.071367837 0.34735432
0.0035126777 0.071758993 0.3492581
0.0045476123 0.072256505 0.35167956
0.0056092683 0.072920494 0.35491124
0.0067181201 0.073899321 0.35967529
-0.091051094 0.072941482 0.35011667
-0.088615388 0.071783409 0.34455797
-0.086897284 0.071187042 0.3416954
-0.085205652 0.070598967 0.33887267
-0.083739512 0.070186295 0.33689186
-0.082349077 0.069828168 0.33517286
-0.081037454 0.069529176 0.3337377
-0.079751566 0.069245376 0.33237547
-0.07850384 0.068988219 0.33114114
-0.077299081 0.068762988 0.33006003
-0.076122425 0.068557464 0.32907352
-0.074983865 0.068381518 0.32822898
-0.073856682 0.068211585 0.32741332
-0.072729945 0.068037689 0.32657862
-0.071615793 0.067871176 0.32577938
-0.070550129 0.067746818 0.32518244
-0.069488361 0.067622907 0.32458767
-0.068433098 0.067502037 0.32400751
-0.06739448 0.06739448 0.32349125
-0.066366471 0.067294672 0.32301217
-0.065341778 0.067195453 0.3225359
-0.064320117 0.067096524 0.32206106
-0.063301452 0.066997886 0.32158759
-0.062297441 0.066912062 0.32117566
-0.061313115 0.066845126 0.32085437
-0.060330398 0.066777922 0.32053179
-0.059348911 0.066710018 0.32020584
-0.058374651 0.066648223 0.31990924
-0.057413243 0.066599362 0.3196747
-0.056453239 0.066550568 0.31944048
-0.055494182 0.06650129 0.31920397
-0.054536439 0.066451959 0.31896719
-0.053580116 0.066402711 0.31873077
-0.052644495 0.066377841 0.31861141
-0.051711075 0.066354915 0.31850138
-0.0507783 0.066332012 0.31839144
-0.049846206 0.066309169 0.3182818
-0.048923098 0.066297658 0.31822652
-0.048000123 0.066285886 0.31817001
-0.047075797 0.066271752 0.31810218
-0.046151858 0.066257618 0.31803435
-0.045238987 0.066259123 0.31804156
-0.044331696 0.066269033 0.31808913
-0.043424133 0.066278942 0.31813669
-0.042516299 0.066288851 0.31818426
-0.041608151 0.066298701 0.31823155
-0.040702619 0.066313259 0.31830141
-0.039801601 0.066335998 0.31841058
-0.038899966 0.06635876 0.31851983
-0.037997708 0.066381536 0.31862915
-0.037094828 0.06640432 0.31873852
-0.036194537 0.066433005 0.31887621
-0.035298981 0.066472106 0.31906387
-0.03440237 0.066511251 0.31925178
-0.03350471 0.066550449 0.31943992
-0.032605954 0.066589616 0.31962794
-0.031707261 0.066631198 0.31982753
-0.030815927 0.066691183 0.32011545
-0.029923484 0.066752382 0.32040921
-0.029029397 0.066813692 0.32070348
-0.02813367 0.066875115 0.32099831
-0.02723629 0.066936642 0.32129365
-0.026340248 0.067005895 0.32162604
-0.025446618 0.06708654 0.32201314
-0.024550822 0.067167342 0.32240099
-0.023652863 0.067248337 0.32278976
-0.022752738 0.067329526 0.32317948
-0.021854078 0.067422159 0.3236241
-0.020955836 0.067524366 0.32411468
-0.020054869 0.067626886 0.32460678
-0.019151159 0.067729712 0.32510033
-0.018246509 0.067839585 0.32562774
-0.017339917 0.067953728 0.3261756
-0.016432501 0.068077505 0.32676974
-0.015524403 0.068213284 0.32742149
-0.014612675 0.068349607 0.32807583
-0.013696849 0.068484247 0.32872209
-0.012778351 0.068624482 0.3293952
-0.011860806 0.068792671 0.33020252
-0.010939491 0.068966359 0.33103621
-0.010014935 0.069150746 0.33192125
-0.0090854215 0.069336109 0.332811
-0.008150911 0.069522478 0.33370554
-0.0072113634 0.069709845 0.33460492
-0.0062683783 0.069916524 0.33559698
-0.0053222864 0.070157409 0.33675322
-0.004363908 0.070307404 0.33747318
-0.0034013302 0.070456125 0.33818704
-0.0024358185 0.070638739 0.33906358
-0.0014675297 0.0709306 0.3404645
-0.00049120601 0.071224876 0.34187701
0.0004934633 0.07155218 0.34344807
0.0014880697 0.071923368 0.34522974
0.0024931848 0.072302356 0.34704888
0.0035084111 0.07267423 0.34883386
0.0045425599 0.07318569 0.35128886
0.0056022881 0.073848344 0.35446957
0.0067114094 0.074858025 0.35931602
-0.091680244 0.074458539 0.35253593
-0.08872921 0.072867006 0.34500057
-0.08695139 0.072213866 0.34190816
-0.085297503 0.071649902 0.33923799
-0.083800733 0.071206406 0.33713818
-0.082394607 0.070830457 0.33535817
-0.081083871 0.070528574 0.33392888
-0.079797067 0.070240535 0.3325651
-0.078534618 0.06996721 0.33127099
-0.077331252 0.069740452 0.33019739
